1387
22.379999 -18.173029 -600.922791
22.930000 -18.173029 -600.922791
23.480000 -18.180872 -601.012451
24.040001 -18.177011 -601.083069
24.590000 -18.184855 -601.172729
25.139999 -18.181866 -601.253296
25.700001 -18.189335 -601.453430
26.260000 -18.194189 -601.623657
26.820000 -18.201658 -601.823730
27.379999 -18.209999 -602.033813
27.950001 -18.217964 -602.354370
28.520000 -18.223812 -602.765381
29.090000 -18.240870 -603.075073
29.650000 -18.240120 -603.296021
30.209999 -18.241488 -603.426392
30.770000 -18.249332 -603.516052
31.320000 -18.249828 -603.636414
31.900000 -18.258665 -603.966919
32.459999 -18.273108 -604.246765
33.040001 -18.282818 -604.587158
33.619999 -18.293894 -605.057983
34.209999 -18.312441 -605.728943
34.799999 -18.331362 -606.289429
35.410000 -18.353518 -607.231079
36.000000 -18.376797 -607.841370
36.599998 -18.394470 -608.502380
37.180000 -18.409409 -608.902588
37.759998 -18.419615 -609.363464
38.360001 -18.435923 -609.894043
38.950001 -18.451357 -610.414673
39.520000 -18.454094 -610.675415
40.099998 -18.471149 -610.985107
40.669998 -18.466417 -611.045776
41.230000 -18.467289 -611.055725
41.790001 -18.473391 -611.125427
42.360001 -18.475630 -611.265808
42.930000 -18.473513 -611.356323
43.500000 -18.480982 -611.556458
44.080002 -18.491064 -611.786438
44.660000 -18.498533 -611.986511
45.230000 -18.503387 -612.156738
45.799999 -18.510859 -612.356873
46.369999 -18.504381 -612.397583
46.919998 -18.500399 -612.237305
47.450001 -18.489819 -611.886902
47.939999 -18.464674 -611.025818
48.430000 -18.440401 -610.174683
48.889999 -18.403805 -608.953247
49.380001 -18.383018 -608.141968
49.880001 -18.355757 -607.371399
50.369999 -18.334595 -606.670593
50.880001 -18.318289 -606.140015
51.389999 -18.301983 -605.609375
51.900002 -18.289162 -605.118652
52.419998 -18.283314 -604.707581
52.919998 -18.259163 -604.087341
53.439999 -18.249454 -603.746887
53.959999 -18.241863 -603.315918
54.490002 -18.232651 -603.095886
55.000000 -18.224188 -602.654968
55.540001 -18.216719 -602.454834
56.060001 -18.204020 -602.194946
56.599998 -18.197422 -602.004822
57.130001 -18.188210 -601.784790
57.660000 -18.186842 -601.654419
58.200001 -18.181988 -601.484192
58.740002 -18.184105 -601.393616
59.279999 -18.177134 -601.313965
59.830002 -18.179251 -601.223389
60.369999 -18.170534 -601.123779
60.919998 -18.172277 -601.143738
61.459999 -18.176140 -601.073120
62.020000 -18.169662 -601.113831
62.560001 -18.170038 -601.003357
63.080002 -18.162569 -600.803284
63.599998 -18.154602 -600.482727
64.120003 -18.141033 -600.212891
64.629997 -18.136057 -599.811829
65.139999 -18.126347 -599.471375
65.639999 -18.107924 -599.031311
66.150002 -18.099085 -598.700806
66.660004 -18.089376 -598.360352
67.190002 -18.084522 -598.190125
67.709999 -18.080914 -597.919434
68.230003 -18.075188 -597.739197
68.760002 -18.072077 -597.588928
69.300003 -18.062489 -597.479370
69.820000 -18.052404 -597.249329
70.360001 -18.058882 -597.208618
70.900002 -18.052780 -597.138916
71.449997 -18.055393 -597.168762
71.980003 -18.055769 -597.058350
72.529999 -18.047550 -597.079102
73.080002 -18.046679 -597.069153
73.610001 -18.046183 -596.948730
74.150002 -18.041824 -596.898926
74.690002 -18.046556 -596.838318
75.220001 -18.036970 -596.728699
75.750000 -18.032116 -596.558472
76.250000 -18.026764 -596.267822
76.760002 -18.017927 -595.937378
77.269997 -18.005228 -595.677490
77.779999 -17.999878 -595.386841
78.300003 -17.995893 -595.226563
78.830002 -17.988050 -595.136902
79.370003 -17.990168 -595.046387
79.919998 -17.993654 -595.086243
80.449997 -17.989296 -595.036438
81.010002 -17.988050 -595.136902
81.620003 -18.009089 -595.606873
82.239998 -18.022781 -596.107605
82.839996 -18.035976 -596.487854
83.430000 -18.043941 -596.808411
84.040001 -18.053276 -597.259277
84.629997 -18.057756 -597.539978
85.230003 -18.069208 -597.900330
85.830002 -18.078047 -598.230835
86.449997 -18.092609 -598.741516
87.040001 -18.108793 -599.041260
87.639999 -18.120247 -599.401611
88.239998 -18.127340 -599.712158
88.860001 -18.138418 -600.182983
89.449997 -18.142899 -600.463684
90.050003 -18.157339 -600.743469
90.660004 -18.162315 -601.144592
91.279999 -18.184227 -601.624512
91.870003 -18.186962 -601.885254
92.480003 -18.196672 -602.225708
93.080002 -18.203768 -602.536255
93.709999 -18.224806 -603.006226
94.300003 -18.228415 -603.276917
94.919998 -18.235134 -603.697937
95.519997 -18.248705 -603.967773
96.139999 -18.258038 -604.418701
96.739998 -18.269865 -604.668640
97.339996 -18.273474 -604.939331
97.940002 -18.280567 -605.249878
98.559998 -18.296377 -605.660095
99.160004 -18.307333 -605.900024
99.760002 -18.312685 -606.190674
100.360001 -18.321898 -606.410706
100.949997 -18.321148 -606.631653
101.550003 -18.334717 -606.901489
102.139999 -18.342188 -607.101563
102.730003 -18.347914 -607.281738
103.330002 -18.348906 -607.522583
103.919998 -18.356375 -607.722717
104.489998 -18.355129 -607.823181
105.059998 -18.361231 -607.892944
105.599998 -18.362476 -607.792419
106.139999 -18.352888 -607.682861
106.639999 -18.345795 -607.372314
107.160004 -18.337454 -607.162231
107.669998 -18.335588 -606.911438
108.199997 -18.322515 -606.762024
108.730003 -18.319405 -606.611694
109.279999 -18.324137 -606.551086
109.820000 -18.318035 -606.481323
110.389999 -18.317661 -606.591797
110.930000 -18.319778 -606.501221
111.510002 -18.318533 -606.601746
112.089996 -18.329863 -606.731262
112.669998 -18.330360 -606.851685
113.250000 -18.334341 -607.011902
113.860001 -18.336208 -607.262695
114.470001 -18.349777 -607.532532
115.110001 -18.360855 -608.003357
115.769997 -18.377163 -608.533997
116.440002 -18.398699 -609.124329
117.190002 -18.420853 -610.065979
117.980003 -18.456577 -611.277527
118.849998 -18.501141 -612.819458
119.559998 -18.529272 -613.599976
120.239998 -18.541719 -614.201233
120.870003 -18.549685 -614.521729
121.459999 -18.559273 -614.631287
122.059998 -18.565870 -614.821472
122.680000 -18.572092 -615.122070
123.300003 -18.574829 -615.382813
123.930000 -18.583668 -615.713318
124.540001 -18.593750 -615.943298
125.150002 -18.602962 -616.163330
125.769997 -18.603085 -616.394226
126.379997 -18.614912 -616.644104
126.989998 -18.623253 -616.854187
127.599998 -18.630722 -617.054321
128.199997 -18.632961 -617.194641
128.800003 -18.637815 -617.364868
129.399994 -18.642672 -617.535095
129.970001 -18.636194 -617.575806
130.509995 -18.633955 -617.435486
131.039993 -18.629101 -617.265259
131.570007 -18.623375 -617.085083
132.050003 -18.619268 -616.693909
132.520004 -18.603460 -616.283752
132.949997 -18.587528 -615.642700
133.389999 -18.568605 -615.082214
133.789993 -18.545702 -614.361450
134.229996 -18.527653 -613.810974
134.630005 -18.512094 -613.059448
135.039993 -18.491804 -612.368591
135.429993 -18.464542 -611.598022
135.850006 -18.451225 -610.986877
136.229996 -18.423964 -610.216309
136.649994 -18.411518 -609.615112
137.039993 -18.384256 -608.844543
137.470001 -18.367079 -608.303955
137.860001 -18.341558 -607.553345
138.270004 -18.328241 -606.942200
138.669998 -18.310568 -606.281189
139.059998 -18.286791 -605.550476
139.490005 -18.270485 -605.019897
139.889999 -18.253681 -604.368896
140.330002 -18.240860 -603.878113
140.770004 -18.220692 -603.418152
141.169998 -18.202147 -602.747192
141.610001 -18.192812 -602.296326
142.080002 -18.182232 -601.945923
142.509995 -18.168539 -601.445190
142.929993 -18.153105 -600.924561
143.389999 -18.139908 -600.544250
143.889999 -18.129826 -600.314270
144.369995 -18.127089 -600.053528
144.800003 -18.112524 -599.542847
145.279999 -18.099827 -599.282959
145.740005 -18.087502 -598.912598
146.229996 -18.088251 -598.691711
146.710007 -18.073811 -598.411926
147.199997 -18.073689 -598.181030
147.699997 -18.064476 -597.960999
148.199997 -18.060493 -597.800720
148.699997 -18.053896 -597.610596
149.240005 -18.051281 -597.580688
149.789993 -18.052153 -597.590637
150.339996 -18.052153 -597.590637
150.940002 -18.058750 -597.780823
151.539993 -18.067963 -598.000854
152.190002 -18.081158 -598.381165
152.850006 -18.091364 -598.841980
153.570007 -18.107294 -599.483032
154.369995 -18.142027 -600.453735
155.250000 -18.173889 -601.735840
-108.699997 -19.388132 -623.302063
-108.010002 -19.360495 -622.641968
-107.320000 -19.337591 -621.921204
-106.639999 -19.326017 -621.329956
-106.040001 -19.318548 -621.129883
-105.440002 -19.315435 -620.979553
-104.849998 -19.310581 -620.809326
-104.250000 -19.306599 -620.649048
-103.639999 -19.293900 -620.389221
-103.000000 -19.288052 -619.978149
-102.389999 -19.278839 -619.758118
-101.790001 -19.271372 -619.557983
-101.169998 -19.265148 -619.257385
-100.580002 -19.262035 -619.107117
-99.949997 -19.248840 -618.726807
-99.349998 -19.239630 -618.506775
-98.739998 -19.229546 -618.276794
-98.150002 -19.224689 -618.106567
-97.550003 -19.224567 -617.875671
-96.989998 -19.219835 -617.936340
-96.419998 -19.227182 -617.905579
-95.830002 -19.218468 -617.805908
-95.250000 -19.220585 -617.715393
-94.709999 -19.222824 -617.855774
-94.139999 -19.222824 -617.855774
-93.589996 -19.219835 -617.936340
-93.019997 -19.227182 -617.905579
-92.470001 -19.229424 -618.045898
-91.900002 -19.226809 -618.015991
-91.360001 -19.231663 -618.186218
-90.809998 -19.238634 -618.265930
-90.250000 -19.233030 -618.316589
-89.680000 -19.234774 -618.336548
-89.139999 -19.241371 -618.526672
-88.599998 -19.244484 -618.677002
-88.059998 -19.250210 -618.857178
-87.500000 -19.258053 -618.946838
-86.959999 -19.261166 -619.097107
-86.410004 -19.261662 -619.217529
-85.860001 -19.265644 -619.377808
-85.320000 -19.272242 -619.567932
-84.769997 -19.277098 -619.738159
-84.230003 -19.282824 -619.918396
-83.680000 -19.292410 -620.027954
-83.120003 -19.291164 -620.128418
-82.580002 -19.300377 -620.348450
-82.029999 -19.298258 -620.439026
-81.480003 -19.311331 -620.588440
-80.919998 -19.307470 -620.659058
-80.370003 -19.317928 -620.778564
-79.809998 -19.315811 -620.869141
-79.250000 -19.324528 -620.968750
-78.699997 -19.321537 -621.049316
-78.150002 -19.329878 -621.259399
-77.589996 -19.335979 -621.329102
-77.029999 -19.330376 -621.379761
-76.480003 -19.337845 -621.579895
-75.919998 -19.338715 -621.589844
-75.360001 -19.348303 -621.699463
-74.800003 -19.346186 -621.789978
-74.250000 -19.351912 -621.970154
-73.690002 -19.354525 -622.000061
-73.129997 -19.356766 -622.140381
-72.570000 -19.362865 -622.210083
-72.000000 -19.363737 -622.220093
-71.440002 -19.360748 -622.300659
-70.889999 -19.362988 -622.440979
-70.320000 -19.368217 -622.500732
-69.760002 -19.373447 -622.560547
-69.190002 -19.376060 -622.590393
-68.620003 -19.368713 -622.621155
-68.050003 -19.369587 -622.631104
-67.489998 -19.375687 -622.700867
-66.930000 -19.375313 -622.811340
-66.379997 -19.385771 -622.930847
-65.800003 -19.380541 -622.871094
-65.230003 -19.383156 -622.901001
-64.660004 -19.381413 -622.881042
-64.080002 -19.375313 -622.811340
-63.490002 -19.372200 -622.661011
-62.880001 -19.361994 -622.200134
-62.279999 -19.351040 -621.960205
-58.750000 -18.796864 -603.578552
-58.060001 -18.756660 -602.086365
-57.369999 -18.708733 -600.735413
-56.759998 -18.691929 -600.084412
-56.139999 -18.669025 -599.363647
-55.560001 -18.662802 -599.063049
-54.990002 -18.658323 -598.782349
-54.430000 -18.644379 -598.622986
-53.869999 -18.649982 -598.572266
-53.320000 -18.645624 -598.522461
-52.770000 -18.641266 -598.472656
-52.220001 -18.641266 -598.472656
-51.660000 -18.640768 -598.352234
-51.110001 -18.637283 -598.312439
-50.560001 -18.641144 -598.241821
-50.000000 -18.634172 -598.162109
-49.439999 -18.629316 -597.991882
-48.889999 -18.630190 -598.001831
-48.340000 -18.630564 -597.891418
-47.790001 -18.627077 -597.851563
-47.230000 -18.621847 -597.791748
-46.689999 -18.620977 -597.781799
-46.139999 -18.626205 -597.841614
-45.599998 -18.627949 -597.861511
-45.040001 -18.621847 -597.791748
-44.490002 -18.620480 -597.661377
-43.930000 -18.616497 -597.501160
-43.360001 -18.609402 -597.190552
-42.790001 -18.595833 -596.920715
-42.220001 -18.589609 -596.620117
-41.669998 -18.585627 -596.459839
-41.110001 -18.579901 -596.279663
-40.549999 -18.574175 -596.099487
-40.000000 -18.576292 -596.008972
-39.439999 -18.567577 -595.909363
-38.900002 -18.563219 -595.859558
-38.340000 -18.564465 -595.759033
-37.790001 -18.562225 -595.618713
-37.220001 -18.554260 -595.298157
-36.650002 -18.533220 -594.828247
-36.090000 -18.528740 -594.547546
-35.529999 -18.524261 -594.266846
-34.970001 -18.515921 -594.056824
-34.410000 -18.507580 -593.846741
-33.849998 -18.494881 -593.586853
-33.299999 -18.494759 -593.355957
-32.750000 -18.490776 -593.195740
-32.200001 -18.485546 -593.135925
-31.650000 -18.485050 -593.015503
-31.100000 -18.477205 -592.925842
-30.549999 -18.474966 -592.785522
-30.000000 -18.476212 -592.685059
-29.450001 -18.464882 -592.555542
-28.910000 -18.473101 -592.534729
-28.370001 -18.466127 -592.455017
-27.820000 -18.462643 -592.415222
-27.270000 -18.464760 -592.324646
-26.730000 -18.458658 -592.254944
-26.180000 -18.453430 -592.195129
-25.650000 -18.461273 -592.284790
-25.100000 -18.454302 -592.205139
-24.559999 -18.462521 -592.184326
-24.020000 -18.454302 -592.205139
-23.480000 -18.456043 -592.225037
-22.930000 -18.462521 -592.184326
-22.389999 -18.458162 -592.134521
-21.850000 -18.460777 -592.164429
-21.309999 -18.454302 -592.205139
-20.760000 -18.457291 -592.124573
-20.219999 -18.459034 -592.144470
-19.680000 -18.458658 -592.254944
-19.139999 -18.463392 -592.194275
-18.600000 -18.456917 -592.234985
-18.059999 -18.457788 -592.244995
-17.510000 -18.458658 -592.254944
-16.969999 -18.463017 -592.304749
-16.430000 -18.463017 -592.304749
-15.890000 -18.462145 -592.294800
-15.350000 -18.465631 -592.334656
-14.810000 -18.462643 -592.415222
-14.270000 -18.461771 -592.405212
-13.720000 -18.463514 -592.425171
-13.180000 -18.470486 -592.504822
-12.640000 -18.467497 -592.585388
-12.100000 -18.473101 -592.534729
-11.560000 -18.467497 -592.585388
-11.020000 -18.476212 -592.685059
-10.480000 -18.478827 -592.714905
-9.940000 -18.481068 -592.855286
-9.390000 -18.482809 -592.875183
-8.850000 -18.481564 -592.975647
-8.310000 -18.483307 -592.995605
-7.770000 -18.482059 -593.096069
-7.230000 -18.491648 -593.205688
-6.690000 -18.492144 -593.326111
-6.140000 -18.500860 -593.425720
-5.600000 -18.500484 -593.536133
-5.060000 -18.507458 -593.615845
-4.520000 -18.505339 -593.706360
-3.970000 -18.505836 -593.826782
-3.430000 -18.517166 -593.956299
-2.890000 -18.518536 -594.086670
-2.350000 -18.519032 -594.207092
-1.800000 -18.526501 -594.407227
-1.260000 -18.526127 -594.517639
-0.710000 -18.538328 -594.657104
-0.170000 -18.541937 -594.927856
0.370000 -18.546789 -595.098083
0.920000 -18.553389 -595.288208
1.460000 -18.554756 -595.418579
2.010000 -18.560482 -595.598755
2.560000 -18.566208 -595.778992
3.100000 -18.572805 -595.969116
3.650000 -18.579405 -596.159241
4.200000 -18.584257 -596.329468
4.740000 -18.589985 -596.509705
5.290000 -18.599197 -596.729736
5.840000 -18.605795 -596.919861
6.390000 -18.606789 -597.160706
6.940000 -18.613384 -597.350830
7.490000 -18.620855 -597.550964
8.040000 -18.623966 -597.701233
8.590000 -18.637535 -597.971069
9.140000 -18.644135 -598.161255
9.690000 -18.650730 -598.351379
10.240000 -18.648613 -598.441895
10.790000 -18.655586 -598.521606
11.340000 -18.658697 -598.671936
11.890000 -18.661312 -598.701782
12.430000 -18.657452 -598.772400
12.980000 -18.663551 -598.842163
13.530000 -18.667038 -598.881958
14.090000 -18.669277 -599.022339
14.640000 -18.666288 -599.102905
15.190000 -18.675501 -599.322937
15.740000 -18.678612 -599.473206
16.299999 -18.688696 -599.703247
16.850000 -18.693176 -599.983887
17.410000 -18.701141 -600.304443
17.969999 -18.712593 -600.664795
18.530001 -18.720062 -600.864929
19.090000 -18.728403 -601.075012
19.639999 -18.731018 -601.104858
20.190001 -18.730146 -601.094910
20.730000 -18.723549 -600.904785
21.280001 -18.720062 -600.864929
21.830000 -18.720062 -600.864929
22.379999 -18.719193 -600.854919
22.930000 -18.722677 -600.894775
23.480000 -18.729650 -600.974487
24.040001 -18.721432 -600.995300
24.590000 -18.727531 -601.065002
25.139999 -18.726286 -601.165527
25.700001 -18.737616 -601.295044
26.260000 -18.735994 -601.505981
26.820000 -18.748198 -601.645447
27.379999 -18.757906 -601.985901
27.950001 -18.760641 -602.246643
28.510000 -18.771223 -602.597046
29.080000 -18.787409 -602.896790
29.650000 -18.791887 -603.177429
30.200001 -18.788027 -603.248047
30.770000 -18.796368 -603.458130
31.320000 -18.805954 -603.567688
31.889999 -18.806948 -603.808533
32.450001 -18.817032 -604.038513
33.029999 -18.831970 -604.438782
33.610001 -18.843048 -604.909607
34.200001 -18.860723 -605.570557
34.790001 -18.877901 -606.111145
35.400002 -18.912632 -607.081787
35.990002 -18.925077 -607.682983
36.590000 -18.947111 -608.393799
37.169998 -18.956820 -608.734192
37.759998 -18.970512 -609.234924
38.349998 -18.990305 -609.805359
38.939999 -19.003998 -610.306091
39.520000 -19.009724 -610.486267
40.080002 -19.011091 -610.616638
40.639999 -19.011963 -610.626587
41.209999 -19.024164 -610.766113
41.770000 -19.018560 -610.816772
42.349998 -19.024286 -610.996948
42.910000 -19.034744 -611.116516
43.490002 -19.031382 -611.307495
44.060001 -19.041840 -611.427063
44.639999 -19.046318 -611.707764
45.209999 -19.053787 -611.907837
45.790001 -19.058643 -612.078064
46.349998 -19.063002 -612.127869
46.900002 -19.057276 -611.947693
47.439999 -19.046318 -611.707764
47.930000 -19.022919 -610.866577
48.419998 -18.993416 -609.955688
48.880001 -18.959435 -608.764099
49.380001 -18.936529 -608.043335
49.869999 -18.911011 -607.292725
50.369999 -18.890720 -606.601868
50.880001 -18.870928 -606.031433
51.389999 -18.857237 -605.530701
51.900002 -18.838314 -604.970215
52.419998 -18.825991 -604.599915
52.919998 -18.810556 -604.079285
53.439999 -18.803837 -603.658264
53.959999 -18.792383 -603.297852
54.490002 -18.780558 -603.047974
55.000000 -18.773838 -602.626953
55.540001 -18.767241 -602.436768
56.060001 -18.752798 -602.156982
56.599998 -18.748816 -601.996704
57.130001 -18.740475 -601.786621
57.669998 -18.737364 -601.636353
58.200001 -18.733379 -601.476074
58.740002 -18.732883 -601.355652
59.290001 -18.731140 -601.335754
59.830002 -18.728029 -601.185425
60.360001 -18.717569 -601.065918
60.910000 -18.715828 -601.045959
61.470001 -18.717569 -601.065918
62.009998 -18.715828 -601.045959
62.560001 -18.718817 -600.965393
63.099998 -18.710974 -600.875732
63.619999 -18.709108 -600.624939
64.139999 -18.696409 -600.365051
64.639999 -18.685331 -599.894226
65.129997 -18.669025 -599.363647
65.620003 -18.650105 -598.803162
66.129997 -18.638653 -598.442810
66.639999 -18.633301 -598.152161
67.160004 -18.622345 -597.912170
67.680000 -18.620480 -597.661377
68.209999 -18.606535 -597.502014
68.730003 -18.608156 -597.291077
69.260002 -18.595955 -597.151611
69.800003 -18.596329 -597.041138
70.339996 -18.591101 -596.981384
70.879997 -18.596704 -596.930664
71.419998 -18.594961 -596.910767
71.959999 -18.589731 -596.851013
72.510002 -18.588860 -596.841064
73.050003 -18.587116 -596.821106
73.599998 -18.586245 -596.811157
74.139999 -18.590105 -596.740540
74.680000 -18.585749 -596.690735
75.220001 -18.582262 -596.650879
75.760002 -18.578775 -596.611023
76.290001 -18.578279 -596.490601
76.800003 -18.565580 -596.230713
77.309998 -18.559359 -595.930115
77.820000 -18.558365 -595.689331
78.339996 -18.547409 -595.449341
78.860001 -18.546041 -595.318970
79.389999 -18.535582 -595.199402
79.930000 -18.540316 -595.138794
80.489998 -18.540812 -595.259216
81.059998 -18.546537 -595.439392
81.690002 -18.566330 -596.009827
82.290001 -18.573921 -596.440796
82.900002 -18.590603 -596.860962
83.480003 -18.598944 -597.071045
84.080002 -18.603048 -597.462158
84.680000 -18.614502 -597.822510
85.290001 -18.630310 -598.232727
85.889999 -18.641764 -598.593079
86.489998 -18.656700 -598.993286
87.080002 -18.658566 -599.244080
87.690002 -18.675247 -599.664246
88.290001 -18.684958 -600.004700
88.900002 -18.689934 -600.405762
89.489998 -18.700890 -600.645752
90.099998 -18.715828 -601.045959
90.709999 -18.728151 -601.416321
91.300003 -18.734373 -601.716919
91.910004 -18.744953 -602.067322
92.510002 -18.752048 -602.377869
93.099998 -18.766491 -602.657715
93.720001 -18.773211 -603.078674
94.320000 -18.777691 -603.359375
94.930000 -18.797361 -603.698975
95.529999 -18.801842 -603.979614
96.150002 -18.810303 -604.420593
96.750000 -18.824745 -604.700378
97.349998 -18.826611 -604.951172
97.940002 -18.839308 -605.211060
98.550003 -18.845531 -605.511658
99.139999 -18.854744 -605.731689
99.750000 -18.863581 -606.062195
100.339996 -18.871922 -606.272278
100.930000 -18.871172 -606.493164
101.529999 -18.882999 -606.743103
102.129997 -18.892212 -606.963135
102.730003 -18.895821 -607.233826
103.309998 -18.898932 -607.384155
103.900002 -18.902914 -607.544373
104.489998 -18.909512 -607.734558
105.040001 -18.907768 -607.714600
105.589996 -18.913374 -607.663940
106.120003 -18.901171 -607.524475
106.620003 -18.893206 -607.203918
107.139999 -18.884865 -606.993896
107.639999 -18.878641 -606.693298
108.180000 -18.881632 -606.612732
108.720001 -18.874659 -606.533020
109.250000 -18.872419 -606.392639
109.800003 -18.865446 -606.312988
110.349998 -18.866318 -606.322937
110.919998 -18.870674 -606.372742
111.480003 -18.871548 -606.382690
112.059998 -18.873787 -606.523071
112.650002 -18.882128 -606.733093
113.250000 -18.890469 -606.943176
113.849998 -18.893206 -607.203918
114.470001 -18.899427 -607.504517
115.120003 -18.920467 -607.974487
115.779999 -18.936773 -608.505127
116.440002 -18.953953 -609.045654
117.150002 -18.973867 -609.846985
117.930000 -19.011709 -610.967957
118.820000 -19.055897 -612.620361
119.529999 -19.081415 -613.371033
120.220001 -19.098221 -614.022034
120.820000 -19.103947 -614.202209
121.440002 -19.110168 -614.502808
122.019997 -19.118883 -614.602417
122.650002 -19.124235 -614.893066
123.260002 -19.134319 -615.123047
123.879997 -19.137056 -615.383789
124.500000 -19.153240 -615.683533
125.110001 -19.154234 -615.924377
125.730003 -19.164318 -616.154358
126.320000 -19.166557 -616.294739
126.940002 -19.178385 -616.544617
127.540001 -19.185854 -616.744751
128.149994 -19.183361 -616.945740
128.770004 -19.192574 -617.165771
129.339996 -19.194317 -617.185669
129.919998 -19.202162 -617.275330
130.479996 -19.197803 -617.225525
131.009995 -19.193821 -617.065247
131.520004 -19.181993 -616.815369
132.029999 -19.178385 -616.544617
132.479996 -19.154732 -616.044800
132.919998 -19.143156 -615.453552
133.339996 -19.118135 -614.823303
133.770004 -19.103947 -614.202209
134.169998 -19.081041 -613.481445
134.570007 -19.058138 -612.760742
135.020004 -19.044445 -612.260010
135.369995 -19.011457 -611.309265
135.789993 -18.996395 -610.678162
136.179993 -18.973492 -609.957397
136.610001 -18.961046 -609.356201
136.990005 -18.934656 -608.595642
137.429993 -18.919222 -608.075012
137.779999 -18.889719 -607.164124
138.220001 -18.878641 -606.693298
138.619995 -18.859222 -606.012390
139.020004 -18.831587 -605.352295
139.419998 -18.811296 -604.661377
139.850006 -18.797606 -604.160706
140.289993 -18.783041 -603.650024
140.720001 -18.768476 -603.139343
141.119995 -18.753416 -602.508240
141.630005 -18.745949 -602.308167
142.039993 -18.726154 -601.737732
142.470001 -18.712463 -601.237000
142.919998 -18.696653 -600.826782
143.380005 -18.682587 -600.436523
143.869995 -18.681593 -600.195740
144.330002 -18.667526 -599.805481
144.779999 -18.652588 -599.405212
145.279999 -18.645990 -599.215088
145.729996 -18.632793 -598.834778
146.229996 -18.634417 -598.623840
146.720001 -18.622589 -598.373901
147.229996 -18.619476 -598.223633
147.729996 -18.612881 -598.033508
148.210007 -18.609270 -597.762756
148.710007 -18.603544 -597.582581
149.250000 -18.601803 -597.562622
149.800003 -18.601803 -597.562622
150.330002 -18.598316 -597.522827
150.940002 -18.610144 -597.772705
151.550003 -18.610266 -598.003601
152.179993 -18.627321 -598.313293
152.839996 -18.634041 -598.734314
153.580002 -18.659559 -599.484924
154.360001 -18.687319 -600.375916
155.270004 -18.727898 -601.757629
-107.980003 -19.922600 -622.412109
-107.320000 -19.904551 -621.861572
-106.639999 -19.891233 -621.250427
-106.059998 -19.885132 -621.180664
-105.470001 -19.884636 -621.060242
-104.860001 -19.876295 -620.850159
-104.250000 -19.867083 -620.630127
-103.629997 -19.859116 -620.309631
-103.010002 -19.852022 -619.999084
-102.379997 -19.841440 -619.648682
-101.790001 -19.837458 -619.488403
-101.169998 -19.823889 -619.218567
-100.570000 -19.826382 -619.017578
-99.970001 -19.815426 -618.777588
-99.360001 -19.804470 -618.537659
-98.769997 -19.800488 -618.377380
-98.180000 -19.798246 -618.237061
-97.580002 -19.790777 -618.036926
-97.010002 -19.787292 -617.997070
-96.449997 -19.794264 -618.076782
-95.870003 -19.787292 -617.997070
-95.300003 -19.793768 -617.956360
-94.739998 -19.795511 -617.976318
-94.180000 -19.791651 -618.046875
-93.610001 -19.788164 -618.007080
-93.050003 -19.793392 -618.066833
-92.500000 -19.801237 -618.156494
-91.930000 -19.793890 -618.187256
-91.400002 -19.801359 -618.387329
-90.849998 -19.810946 -618.496948
-90.290001 -19.814432 -618.536804
-89.750000 -19.813683 -618.757690
-89.180000 -19.819286 -618.707031
-88.629997 -19.820656 -618.837402
-88.070000 -19.819408 -618.937866
-87.550003 -19.833851 -619.217651
-86.980003 -19.836466 -619.247559
-86.440002 -19.838705 -619.387878
-85.879997 -19.835714 -619.468445
-85.349998 -19.846670 -619.708435
-84.809998 -19.855013 -619.918518
-84.250000 -19.852894 -620.009033
-83.699997 -19.866838 -620.168396
-83.150002 -19.865591 -620.268921
-82.599998 -19.870447 -620.439148
-82.040001 -19.876549 -620.508850
-81.510002 -19.875797 -620.729797
-80.940002 -19.875797 -620.729797
-80.379997 -19.885386 -620.839355
-79.839996 -19.892855 -621.039490
-79.279999 -19.888992 -621.110046
-78.720001 -19.897709 -621.209717
-78.180000 -19.906050 -621.419739
-77.620003 -19.903933 -621.510315
-77.050003 -19.904802 -621.520264
-76.500000 -19.905300 -621.640686
-75.940002 -19.914015 -621.740295
-75.370003 -19.911402 -621.710388
-74.809998 -19.919245 -621.800049
-74.260002 -19.923227 -621.960327
-73.690002 -19.917624 -622.010986
-73.139999 -19.932440 -622.180359
-72.570000 -19.931568 -622.170410
-72.019997 -19.936422 -622.340637
-71.449997 -19.939037 -622.370483
-70.889999 -19.931690 -622.401245
-70.320000 -19.937792 -622.471008
-69.760002 -19.943892 -622.540710
-69.199997 -19.938288 -622.591431
-68.629997 -19.942646 -622.641235
-68.070000 -19.946133 -622.681091
-67.500000 -19.951363 -622.740845
-66.949997 -19.954473 -622.891113
-66.370003 -19.947500 -622.811462
-65.809998 -19.955343 -622.901123
-65.230003 -19.952730 -622.871216
-64.650002 -19.945757 -622.791504
-64.070000 -19.942646 -622.641235
-63.480000 -19.938663 -622.480957
-62.860001 -19.927586 -622.010132
-62.240002 -19.907417 -621.550110
-59.459999 -19.397552 -605.051819
-58.720001 -19.340666 -603.139465
-58.029999 -19.287510 -601.728760
-57.349998 -19.249170 -600.487366
-56.740002 -19.234110 -599.856262
-56.119999 -19.207720 -599.095703
-55.549999 -19.204111 -598.824951
-54.970001 -19.191414 -598.565063
-54.410000 -19.190044 -598.434692
-53.849998 -19.189548 -598.314270
-53.299999 -19.184319 -598.254517
-52.750000 -19.182575 -598.234619
-52.200001 -19.179960 -598.204712
-51.650002 -19.180834 -598.214661
-51.099998 -19.184694 -598.144043
-50.540001 -19.182453 -598.003723
-49.990002 -19.180712 -597.983826
-49.439999 -19.173738 -597.904114
-48.880001 -19.173241 -597.783691
-48.330002 -19.168884 -597.733887
-47.779999 -19.164526 -597.684082
-47.230000 -19.171001 -597.643372
-46.669998 -19.167515 -597.603516
-46.130001 -19.164902 -597.573608
-45.580002 -19.164028 -597.563660
-45.029999 -19.164028 -597.563660
-44.480000 -19.165276 -597.463135
-43.910000 -19.157806 -597.263062
-43.340000 -19.149839 -596.942505
-42.770000 -19.133656 -596.642822
-42.209999 -19.131790 -596.392029
-41.639999 -19.118219 -596.122192
-41.090000 -19.115980 -595.981812
-40.540001 -19.111624 -595.932007
-39.980000 -19.109383 -595.791687
-39.430000 -19.103283 -595.721924
-38.889999 -19.112371 -595.711121
-38.340000 -19.103657 -595.611511
-37.779999 -19.099674 -595.451233
-37.209999 -19.087351 -595.080872
-36.639999 -19.078016 -594.630005
-36.080002 -19.060961 -594.320313
-35.520000 -19.058224 -594.059570
-34.959999 -19.049011 -593.839478
-34.400002 -19.046274 -593.578735
-33.849998 -19.034945 -593.449219
-33.290001 -19.035692 -593.228333
-32.740002 -19.020878 -593.058960
-32.189999 -19.022123 -592.958496
-31.639999 -19.020756 -592.828125
-31.100000 -19.014654 -592.758362
-30.549999 -19.013287 -592.627991
-30.000000 -19.012789 -592.507568
-29.450001 -19.000587 -592.368103
-28.900000 -19.007935 -592.337402
-28.360001 -19.000961 -592.257690
-27.809999 -19.002209 -592.157166
-27.270000 -18.995733 -592.197876
-26.719999 -18.991751 -592.037659
-26.180000 -18.991751 -592.037659
-25.639999 -18.992620 -592.047607
-25.100000 -18.990007 -592.017700
-24.559999 -18.995235 -592.077515
-24.010000 -18.992620 -592.047607
-23.469999 -18.993492 -592.057556
-22.930000 -18.990007 -592.017700
-22.389999 -18.991751 -592.037659
-21.840000 -18.997355 -591.986938
-21.299999 -18.990007 -592.017700
-20.760000 -18.990007 -592.017700
-20.219999 -18.992620 -592.047607
-19.680000 -18.992620 -592.047607
-19.139999 -18.994364 -592.067505
-18.590000 -18.991751 -592.037659
-18.049999 -18.990007 -592.017700
-17.510000 -18.996979 -592.097412
-16.969999 -18.999594 -592.127319
-16.430000 -18.997850 -592.107361
-15.890000 -18.997850 -592.107361
-15.340000 -19.000465 -592.137268
-14.800000 -19.002209 -592.157166
-14.260000 -18.998346 -592.227783
-13.720000 -19.000961 -592.257690
-13.180000 -19.004448 -592.297546
-12.640000 -19.002331 -592.388062
-12.100000 -19.004946 -592.417969
-11.560000 -19.006687 -592.437866
-11.010000 -19.011045 -592.487671
-10.470000 -19.013660 -592.517578
-9.930000 -19.013287 -592.627991
-9.390000 -19.017645 -592.677795
-8.850000 -19.013783 -592.748413
-8.310000 -19.017269 -592.788269
-7.770000 -19.020380 -592.938599
-7.230000 -19.029097 -593.038208
-6.680000 -19.026978 -593.128723
-6.140000 -19.035692 -593.228333
-5.600000 -19.031832 -593.298950
-5.060000 -19.035814 -593.459229
-4.520000 -19.041044 -593.518982
-3.970000 -19.042414 -593.649353
-3.430000 -19.056358 -593.808777
-2.890000 -19.054239 -593.899292
-2.340000 -19.061708 -594.099365
-1.800000 -19.063078 -594.229797
-1.260000 -19.069675 -594.419922
-0.710000 -19.071915 -594.560242
-0.170000 -19.076771 -594.730469
0.370000 -19.088100 -594.859985
0.920000 -19.089966 -595.110779
1.460000 -19.092205 -595.251099
2.010000 -19.106150 -595.410522
2.560000 -19.111004 -595.580750
3.100000 -19.110254 -595.801636
3.650000 -19.123327 -595.951050
4.200000 -19.119965 -596.142090
4.740000 -19.125690 -596.322266
5.290000 -19.141874 -596.622009
5.840000 -19.144114 -596.762329
6.390000 -19.153328 -596.982361
6.940000 -19.158180 -597.152588
7.490000 -19.162661 -597.433289
8.040000 -19.171001 -597.643372
8.580000 -19.176727 -597.823547
9.130000 -19.181581 -597.993774
9.690000 -19.194281 -598.253662
10.240000 -19.194777 -598.374084
10.780000 -19.198263 -598.413879
11.340000 -19.203117 -598.584106
11.890000 -19.200129 -598.664673
12.430000 -19.201872 -598.684631
12.980000 -19.205359 -598.724487
13.530000 -19.205854 -598.844910
14.080000 -19.213699 -598.934570
14.630000 -19.211580 -599.025085
15.190000 -19.218180 -599.215210
15.740000 -19.224775 -599.405396
16.299999 -19.233990 -599.625427
16.850000 -19.244944 -599.865356
17.410000 -19.249424 -600.146057
17.969999 -19.253033 -600.416748
18.530001 -19.264484 -600.777100
19.080000 -19.271954 -600.977234
19.639999 -19.281540 -601.086792
20.190001 -19.278927 -601.056946
20.740000 -19.278053 -601.046997
21.280001 -19.274071 -600.886719
21.830000 -19.271456 -600.856812
22.379999 -19.273199 -600.876770
22.930000 -19.274942 -600.896667
23.480000 -19.276686 -600.916565
24.030001 -19.274071 -600.886719
24.590000 -19.282412 -601.096802
25.150000 -19.280294 -601.187317
25.700001 -19.279049 -601.287781
26.260000 -19.286892 -601.377441
26.820000 -19.296104 -601.597473
27.379999 -19.302326 -601.898071
27.940001 -19.306807 -602.178772
28.510000 -19.318258 -602.539124
29.080000 -19.330086 -602.789063
29.650000 -19.339794 -603.129517
30.209999 -19.343779 -603.289795
30.760000 -19.349878 -603.359497
31.320000 -19.351248 -603.489868
31.879999 -19.355230 -603.650146
32.450001 -19.362324 -603.960693
33.029999 -19.373775 -604.321106
33.610001 -19.394815 -604.791016
34.189999 -19.413736 -605.351501
34.779999 -19.427925 -605.972656
35.389999 -19.451326 -606.813843
35.990002 -19.475103 -607.544495
36.580002 -19.501867 -608.194641
37.169998 -19.511202 -608.645569
37.750000 -19.530499 -609.095581
38.340000 -19.545935 -609.616211
38.930000 -19.555267 -610.067139
39.509998 -19.566223 -610.307068
40.070000 -19.566223 -610.307068
40.630001 -19.564978 -610.407593
41.200001 -19.571951 -610.487305
41.759998 -19.570704 -610.587769
42.330002 -19.575933 -610.647522
42.900002 -19.585146 -610.867554
43.470001 -19.582651 -611.068542
44.049999 -19.590120 -611.268677
44.619999 -19.598837 -611.368286
45.200001 -19.602446 -611.638977
45.770000 -19.607300 -611.809204
46.349998 -19.613897 -611.999390
46.889999 -19.603813 -611.769409
47.430000 -19.603691 -611.538513
47.930000 -19.577301 -610.777893
48.410000 -19.545183 -609.837158
48.880001 -19.511700 -608.765991
49.380001 -19.492657 -607.974609
49.869999 -19.468880 -607.243896
50.380001 -19.449087 -606.673462
50.889999 -19.431038 -606.122925
51.389999 -19.407759 -605.512634
51.910000 -19.398424 -605.061768
52.419998 -19.379999 -604.621704
52.930000 -19.364565 -604.101074
53.450001 -19.351370 -603.720764
53.970001 -19.340788 -603.370361
54.500000 -19.338053 -603.109619
55.020000 -19.323984 -602.719360
55.540001 -19.317762 -602.418701
56.070000 -19.306807 -602.178772
56.610001 -19.302822 -602.018494
57.139999 -19.294483 -601.808411
57.669998 -19.287014 -601.608337
58.209999 -19.290874 -601.537720
58.750000 -19.278673 -601.398254
59.279999 -19.271204 -601.198120
59.830002 -19.275936 -601.137512
60.369999 -19.269835 -601.067749
60.919998 -19.267221 -601.037903
61.459999 -19.271082 -600.967285
62.009998 -19.267595 -600.927429
62.560001 -19.268467 -600.937378
63.099998 -19.259750 -600.837769
63.619999 -19.258759 -600.596924
64.150002 -19.249546 -600.376892
64.650002 -19.231121 -599.936829
65.129997 -19.212574 -599.265930
65.599998 -19.195770 -598.614868
66.110001 -19.182575 -598.234619
66.620003 -19.168135 -597.954773
67.139999 -19.165398 -597.694031
67.660004 -19.155313 -597.464050
68.190002 -19.149588 -597.283875
68.709999 -19.139503 -597.053833
69.250000 -19.140751 -596.953369
69.779999 -19.138510 -596.813049
70.320000 -19.136766 -596.793091
70.860001 -19.133282 -596.753235
71.400002 -19.128052 -596.693481
71.940002 -19.133656 -596.642822
72.480003 -19.131041 -596.612915
73.040001 -19.134527 -596.652771
73.589996 -19.128923 -596.703430
74.129997 -19.132784 -596.632813
74.669998 -19.129297 -596.593018
75.209999 -19.127556 -596.573059
75.769997 -19.125437 -596.663574
76.309998 -19.131912 -596.622864
76.849998 -19.123198 -596.523254
77.360001 -19.118717 -596.242554
77.870003 -19.110376 -596.032532
78.379997 -19.096806 -595.762634
78.910004 -19.097181 -595.652222
79.449997 -19.096684 -595.531799
80.000000 -19.094566 -595.622314
80.580002 -19.102036 -595.822449
81.150002 -19.107761 -596.002625
81.750000 -19.125315 -596.432739
82.330002 -19.128052 -596.693481
82.940002 -19.144733 -597.113647
83.529999 -19.147470 -597.374390
84.139999 -19.166765 -597.824402
84.730003 -19.174732 -598.144958
85.349998 -19.186682 -598.625732
85.940002 -19.193775 -598.936279
86.540001 -19.213446 -599.275879
87.150002 -19.219294 -599.686890
87.750000 -19.230745 -600.047302
88.349998 -19.238712 -600.367798
88.949997 -19.254896 -600.667542
89.550003 -19.261992 -600.978088
90.150002 -19.276058 -601.368347
90.750000 -19.281408 -601.658997
91.349998 -19.288504 -601.969543
91.940002 -19.297716 -602.189636
92.550003 -19.312654 -602.589844
93.150002 -19.320620 -602.910339
93.750000 -19.327715 -603.220886
94.349998 -19.339542 -603.470825
94.940002 -19.343149 -603.741577
95.559998 -19.357218 -604.131836
96.169998 -19.369541 -604.502136
96.760002 -19.376139 -604.692322
97.349998 -19.384480 -604.902344
97.949997 -19.388086 -605.173096
98.529999 -19.395555 -605.373169
99.139999 -19.403522 -605.693726
99.739998 -19.417965 -605.973511
100.339996 -19.418085 -606.204407
100.930000 -19.429041 -606.444336
101.510002 -19.431280 -606.584717
102.110001 -19.443979 -606.844543
102.699997 -19.447964 -607.004822
103.279999 -19.451946 -607.165100
103.879997 -19.462029 -607.395081
104.459999 -19.466011 -607.555359
105.019997 -19.467756 -607.575256
105.570000 -19.461655 -607.505554
106.089996 -19.455057 -607.315369
106.599998 -19.449705 -607.024780
107.120003 -19.441364 -606.814697
107.639999 -19.433895 -606.614563
108.180000 -19.426924 -606.534851
108.690002 -19.427673 -606.313965
109.239998 -19.425058 -606.284119
109.790001 -19.419828 -606.224304
110.339996 -19.416344 -606.184448
110.900002 -19.422443 -606.254211
111.470001 -19.427673 -606.313965
112.050003 -19.429041 -606.444336
112.650002 -19.429163 -606.675232
113.230003 -19.441364 -606.814697
113.849998 -19.448460 -607.125244
114.480003 -19.463398 -607.525452
115.120003 -19.471861 -607.966431
115.769997 -19.491158 -608.416443
116.419998 -19.503105 -608.897217
117.160004 -19.534351 -609.828064
117.919998 -19.566093 -610.879272
118.800003 -19.615013 -612.471069
119.489998 -19.634432 -613.151978
120.160004 -19.650738 -613.682556
120.779999 -19.656090 -613.973206
121.400002 -19.670530 -614.252991
121.989998 -19.671026 -614.373413
122.589996 -19.678495 -614.573547
123.199997 -19.686836 -614.783630
123.839996 -19.700031 -615.163940
124.449997 -19.708372 -615.373962
125.070000 -19.713724 -615.664612
125.690002 -19.718204 -615.945313
126.279999 -19.729534 -616.074829
126.900002 -19.731400 -616.325623
127.510002 -19.738869 -616.525696
128.119995 -19.747210 -616.735779
128.720001 -19.749449 -616.876099
129.300003 -19.756422 -616.955811
129.899994 -19.761276 -617.126038
130.449997 -19.756918 -617.076233
131.000000 -19.748203 -616.976624
131.500000 -19.740236 -616.656067
131.979996 -19.727041 -616.275818
132.460007 -19.722065 -615.874695
132.869995 -19.693558 -615.204651
133.300003 -19.677626 -614.563599
133.699997 -19.654720 -613.842834
134.119995 -19.629698 -613.212646
134.529999 -19.611153 -612.541687
134.929993 -19.587376 -611.810974
135.339996 -19.567085 -611.120117
135.720001 -19.547171 -610.318787
136.130005 -19.520407 -609.668640
136.559998 -19.509703 -609.087402
136.929993 -19.479826 -608.286926
137.369995 -19.465263 -607.776245
137.750000 -19.437128 -606.995728
138.199997 -19.427795 -606.544861
138.570007 -19.397919 -605.744385
138.990005 -19.387217 -605.163147
139.389999 -19.356964 -604.473145
139.820007 -19.342400 -603.962463
140.289993 -19.330076 -603.592102
140.710007 -19.313770 -603.061523
141.130005 -19.303940 -602.490234
141.610001 -19.288626 -602.200439
142.039993 -19.273191 -601.679810
142.460007 -19.256884 -601.149231
142.929993 -19.245432 -600.788818
143.399994 -19.237467 -600.468323
143.880005 -19.232115 -600.177673
144.330002 -19.216305 -599.767456
144.789993 -19.203981 -599.397156
145.289993 -19.196512 -599.197021
145.729996 -19.179831 -598.776917
146.240005 -19.176720 -598.626587
146.729996 -19.173983 -598.365845
147.220001 -19.165642 -598.155762
147.710007 -19.156429 -597.935730
148.210007 -19.147217 -597.715698
148.729996 -19.147591 -597.605225
149.259995 -19.143234 -597.555420
149.809998 -19.144106 -597.565369
150.360001 -19.146721 -597.595276
150.960007 -19.153318 -597.785461
151.570007 -19.162531 -598.005493
152.210007 -19.173983 -598.365845
152.880005 -19.188545 -598.876526
153.610001 -19.206221 -599.537476
154.389999 -19.235723 -600.448364
155.300003 -19.274559 -601.810181
-107.279999 -20.474003 -621.600952
-106.650002 -20.462549 -621.240601
-106.040001 -20.453339 -621.020569
-105.449997 -20.444622 -620.920898
-104.860001 -20.443254 -620.790527
-104.250000 -20.442261 -620.549744
-103.620003 -20.424334 -620.230042
-103.000000 -20.417238 -619.919495
-102.379997 -20.410145 -619.608948
-101.779999 -20.400932 -619.388916
-101.180000 -20.393461 -619.188782
-100.570000 -20.384251 -618.968750
-99.959999 -20.381514 -618.708008
-99.370003 -20.377531 -618.547729
-98.779999 -20.373549 -618.387451
-98.190002 -20.360474 -618.238037
-97.599998 -20.359106 -618.107666
-97.029999 -20.357363 -618.087769
-96.459999 -20.354748 -618.057861
-95.889999 -20.356491 -618.077759
-95.330002 -20.360849 -618.127625
-94.769997 -20.365208 -618.177429
-94.209999 -20.365208 -618.177429
-93.639999 -20.363464 -618.157471
-93.089996 -20.366575 -618.307800
-92.529999 -20.366575 -618.307800
-91.959999 -20.369190 -618.337646
-91.419998 -20.369686 -618.458069
-90.860001 -20.378403 -618.557678
-90.320000 -20.384129 -618.737915
-89.769997 -20.382881 -618.838379
-89.209999 -20.388111 -618.898132
-88.669998 -20.392094 -619.058411
-88.110001 -20.397324 -619.118164
-87.570000 -20.404793 -619.318298
-87.000000 -20.404793 -619.318298
-86.470001 -20.408401 -619.588989
-85.919998 -20.419731 -619.718506
-85.379997 -20.424585 -619.888733
-84.820000 -20.421597 -619.969299
-84.290001 -20.433422 -620.219238
-83.730003 -20.431305 -620.309753
-83.190002 -20.438774 -620.509888
-82.620003 -20.441389 -620.539734
-82.070000 -20.442757 -620.670105
-81.510002 -20.449730 -620.749817
-80.959999 -20.448483 -620.850342
-80.410004 -20.459814 -620.979797
-79.849998 -20.455954 -621.050415
-79.300003 -20.461679 -621.230591
-78.739998 -20.470394 -621.330261
-78.199997 -20.476120 -621.510437
-77.629997 -20.481350 -621.570190
-77.070000 -20.477489 -621.640808
-76.510002 -20.484461 -621.720520
-75.949997 -20.487076 -621.750366
-75.389999 -20.483215 -621.820984
-74.830002 -20.493673 -621.940552
-74.260002 -20.487198 -621.981262
-73.699997 -20.488941 -622.001160
-73.150002 -20.496410 -622.201294
-72.589996 -20.499895 -622.241150
-72.029999 -20.498650 -622.341614
-71.459999 -20.499521 -622.351563
-70.889999 -20.503008 -622.391418
-70.330002 -20.513466 -622.510986
-69.760002 -20.513466 -622.510986
-69.199997 -20.509605 -622.581604
-68.639999 -20.520063 -622.701111
-68.070000 -20.515705 -622.651306
-67.510002 -20.512716 -622.731873
-66.940002 -20.519690 -622.811584
-66.360001 -20.511845 -622.721924
-65.800003 -20.517075 -622.781677
-65.220001 -20.511845 -622.721924
-64.639999 -20.516579 -622.661255
-64.059998 -20.506119 -622.541748
-63.470001 -20.505997 -622.310852
-62.820000 -20.477863 -621.530334
-62.250000 -20.480478 -621.560242
-59.400002 -19.924795 -604.423462
-58.689999 -19.871517 -602.781860
-58.000000 -19.831808 -601.410095
-57.330002 -19.794340 -600.178650
-56.700001 -19.763594 -599.368286
-56.110001 -19.751644 -598.887451
-55.520000 -19.741062 -598.537048
-54.950001 -19.733097 -598.216553
-54.389999 -19.729610 -598.176697
-53.830002 -19.726500 -598.026367
-53.290001 -19.726500 -598.026367
-52.730000 -19.722141 -597.976563
-52.189999 -19.723015 -597.986572
-51.630001 -19.718657 -597.936707
-51.080002 -19.725130 -597.895996
-50.529999 -19.718159 -597.816345
-49.970001 -19.718534 -597.705872
-49.410000 -19.705460 -597.556458
-48.860001 -19.711065 -597.505737
-48.310001 -19.708450 -597.475891
-47.759998 -19.706707 -597.455933
-47.209999 -19.702349 -597.406128
-46.660000 -19.707952 -597.355469
-46.110001 -19.709696 -597.375366
-45.570000 -19.709696 -597.375366
-45.009998 -19.695751 -597.216003
-44.450001 -19.697868 -597.125488
-43.889999 -19.692142 -596.945251
-43.320000 -19.677204 -596.545044
-42.750000 -19.676210 -596.304199
-42.189999 -19.667871 -596.094177
-41.639999 -19.658283 -595.984558
-41.080002 -19.655172 -595.834290
-40.529999 -19.651190 -595.674011
-39.970001 -19.653307 -595.583496
-39.430000 -19.652435 -595.573486
-38.880001 -19.645464 -595.493835
-38.320000 -19.644966 -595.373413
-37.770000 -19.641855 -595.223083
-37.200001 -19.626045 -594.812927
-36.630001 -19.615463 -594.462524
-36.070000 -19.599279 -594.162781
-35.509998 -19.596542 -593.902039
-34.950001 -19.582102 -593.622192
-34.400002 -19.578117 -593.461975
-33.840000 -19.574511 -593.191223
-33.290001 -19.571400 -593.040955
-32.730000 -19.566544 -592.870728
-32.180000 -19.558701 -592.781067
-31.629999 -19.554716 -592.620789
-31.080000 -19.553349 -592.490417
-30.540001 -19.545506 -592.400757
-29.990000 -19.543264 -592.260437
-29.440001 -19.542768 -592.140015
-28.889999 -19.538410 -592.090210
-28.350000 -19.532310 -592.020447
-27.809999 -19.529696 -591.990601
-27.260000 -19.527454 -591.850220
-26.709999 -19.527454 -591.850220
-26.170000 -19.533058 -591.799561
-25.629999 -19.528328 -591.860229
-25.090000 -19.527454 -591.850220
-24.549999 -19.527454 -591.850220
-24.010000 -19.535299 -591.939880
-23.469999 -19.533556 -591.919983
-22.920000 -19.529198 -591.870178
-22.379999 -19.525711 -591.830322
-21.840000 -19.528328 -591.860229
-21.299999 -19.528328 -591.860229
-20.760000 -19.527454 -591.850220
-20.209999 -19.525711 -591.830322
-19.670000 -19.526583 -591.840271
-19.129999 -19.529198 -591.870178
-18.590000 -19.528328 -591.860229
-18.049999 -19.530941 -591.890076
-17.510000 -19.530069 -591.880127
-16.959999 -19.530941 -591.890076
-16.420000 -19.532684 -591.910034
-15.880000 -19.536171 -591.949829
-15.340000 -19.534428 -591.929932
-14.800000 -19.537043 -591.959839
-14.260000 -19.539658 -591.989685
-13.720000 -19.535795 -592.060303
-13.180000 -19.534924 -592.050354
-12.640000 -19.545383 -592.169922
-12.090000 -19.542768 -592.140015
-11.550000 -19.540649 -592.230530
-11.010000 -19.546751 -592.300293
-10.470000 -19.551981 -592.360046
-9.930000 -19.550734 -592.460510
-9.390000 -19.553349 -592.490417
-8.850000 -19.559450 -592.560181
-8.310000 -19.559946 -592.680542
-7.760000 -19.563433 -592.720398
-7.220000 -19.566544 -592.870728
-6.680000 -19.562683 -592.941345
-6.140000 -19.573141 -593.060852
-5.600000 -19.567537 -593.111572
-5.060000 -19.577126 -593.221130
-4.520000 -19.584595 -593.421265
-3.970000 -19.581604 -593.501831
-3.430000 -19.590321 -593.601440
-2.890000 -19.586458 -593.672058
-2.340000 -19.597414 -593.911987
-1.800000 -19.599653 -594.052307
-1.260000 -19.611856 -594.191772
-0.710000 -19.610235 -594.402710
-0.170000 -19.614218 -594.562988
0.370000 -19.629034 -594.732361
0.920000 -19.632147 -594.882629
1.460000 -19.636999 -595.052856
2.010000 -19.638865 -595.303650
2.560000 -19.648453 -595.413269
3.100000 -19.651564 -595.563538
3.650000 -19.663391 -595.813477
4.190000 -19.669989 -596.003601
4.740000 -19.675714 -596.183838
5.290000 -19.681440 -596.364014
5.840000 -19.687166 -596.544189
6.390000 -19.689903 -596.804932
6.930000 -19.700859 -597.044922
7.480000 -19.708328 -597.244995
8.030000 -19.708450 -597.475891
