1398
-37.689999 -43.008511 -601.048706
-37.169998 -43.039509 -601.517822
-36.630001 -43.057812 -601.726990
-36.119999 -43.100639 -602.446045
-35.619999 -43.175220 -603.413208
-35.160000 -43.273453 -604.880249
-34.669998 -43.364216 -606.147156
-34.220001 -43.495945 -607.882263
-33.779999 -43.639126 -609.977722
-31.430000 -44.280571 -618.915833
-30.900000 -44.326389 -619.554321
-30.350000 -44.353905 -619.983521
-29.799999 -44.385777 -620.462585
-29.250000 -44.421513 -620.871033
-20.730000 -44.485256 -621.829102
-20.150000 -44.480900 -621.779297
-19.580000 -44.474796 -621.709534
-19.000000 -44.455997 -621.379944
-18.420000 -44.432468 -621.110962
-17.850000 -44.425495 -621.031250
-17.270000 -44.431969 -620.990540
-16.700001 -44.419769 -620.851074
-16.129999 -44.422382 -620.880981
-15.560000 -44.434586 -621.020447
-15.000000 -44.439438 -621.190674
-14.430000 -44.458614 -621.409851
-13.860000 -44.446411 -621.270386
-13.290000 -44.446411 -621.270386
-9.790000 -44.151833 -617.100159
-9.210000 -44.078129 -616.142944
-8.640000 -44.045383 -615.653931
-8.060000 -43.998692 -615.005554
-7.490000 -43.956364 -614.406982
-6.920000 -43.917515 -613.848206
-6.350000 -43.886517 -613.379150
-5.780000 -43.838081 -612.710815
-5.220000 -43.813183 -612.311462
-4.650000 -43.765247 -611.763550
-4.080000 -43.723785 -611.174927
-3.520000 -43.693657 -610.715820
-2.950000 -43.652199 -610.127197
-2.390000 -43.619453 -609.638184
-1.830000 -43.582352 -609.099365
-1.270000 -43.548737 -608.600403
-0.710000 -43.504284 -608.092346
-0.150000 -43.467182 -607.553528
0.410000 -43.442284 -607.154175
0.960000 -43.410034 -606.785583
1.520000 -43.378162 -606.306519
2.080000 -43.351521 -605.887268
2.630000 -43.319271 -605.518677
3.180000 -43.278683 -604.940002
3.740000 -43.244194 -604.431091
4.290000 -43.199249 -603.802612
4.840000 -43.176090 -603.423157
12.390000 -42.477871 -593.606689
12.920000 -42.411137 -592.729126
13.450000 -42.386234 -592.329773
13.980000 -42.341290 -591.701294
14.510000 -42.305058 -591.172485
15.040000 -42.266212 -590.613708
15.570000 -42.234837 -590.255066
16.100000 -42.189892 -589.626587
16.629999 -42.168476 -589.267090
17.160000 -42.141460 -588.958313
17.690001 -42.111328 -588.499146
18.209999 -42.082943 -588.059998
18.740000 -42.059410 -587.791016
19.280001 -42.041107 -587.581787
19.799999 -42.023178 -587.262146
20.330000 -41.990437 -586.773132
20.860001 -41.967773 -586.514160
21.389999 -41.952087 -586.334839
21.920000 -41.942875 -586.114807
22.440001 -41.914112 -585.786011
22.969999 -41.895313 -585.456421
23.500000 -41.875267 -585.227295
24.020000 -41.867798 -585.027161
24.559999 -41.854725 -584.877747
25.080000 -41.831192 -584.608765
25.610001 -41.818993 -584.469299
26.139999 -41.807163 -584.219421
26.670000 -41.795834 -584.089905
27.190001 -41.778404 -583.890625
27.719999 -41.775291 -583.740356
28.260000 -41.770061 -583.680603
28.790001 -41.759602 -583.561035
29.320000 -41.750889 -583.461426
29.850000 -41.750889 -583.461426
30.379999 -41.739559 -583.331909
30.920000 -41.736942 -583.302002
31.450001 -41.737816 -583.312012
31.990000 -41.736073 -583.292053
32.520000 -41.736073 -583.292053
33.060001 -41.742172 -583.361816
33.590000 -41.738686 -583.321960
34.130001 -41.743916 -583.381714
34.669998 -41.750015 -583.451477
35.209999 -41.751759 -583.471375
35.750000 -41.754375 -583.501282
36.290001 -41.764832 -583.620789
36.830002 -41.771805 -583.700500
37.369999 -41.769688 -583.791016
37.910000 -41.774918 -583.850830
38.459999 -41.786247 -583.980286
39.000000 -41.794090 -584.069946
39.560001 -41.819366 -584.358887
40.110001 -41.824223 -584.529114
40.650002 -41.833809 -584.638672
41.200001 -41.850368 -584.827942
41.750000 -41.862568 -584.967407
42.310001 -41.877880 -585.257202
42.869999 -41.903652 -585.666504
-50.939999 -43.096497 -594.596497
-50.360001 -43.065121 -594.237854
-49.779999 -43.040218 -593.838562
-49.220001 -43.022789 -593.639282
-48.669998 -43.017559 -593.579529
-48.130001 -43.021915 -593.629333
-47.599998 -43.038475 -593.818604
-47.049999 -43.034988 -593.778748
-46.509998 -43.034988 -593.778748
-45.950001 -43.027145 -593.689087
-45.410000 -43.031506 -593.738892
-44.869999 -43.041962 -593.858459
-44.340000 -43.048561 -594.048584
-43.820000 -43.079063 -594.397278
-43.330002 -43.131855 -595.115417
-42.849998 -43.189499 -596.003784
-42.330002 -43.226105 -596.422180
-41.810001 -43.242290 -596.721863
-41.279999 -43.272793 -597.070557
-40.770000 -43.310768 -597.619324
-40.270000 -43.356586 -598.257751
-39.770000 -43.413734 -599.025696
-39.279999 -43.473122 -599.934021
-38.779999 -43.529400 -600.691956
-38.240002 -43.552059 -600.950989
-37.709999 -43.574718 -601.210022
-37.169998 -43.593517 -601.539612
-36.639999 -43.617546 -601.929016
-36.139999 -43.682541 -602.786621
-35.639999 -43.739689 -603.554565
-35.160000 -43.831322 -604.831421
-34.669998 -43.918598 -606.058472
-34.189999 -44.018951 -607.434998
-33.750000 -44.163376 -609.429993
-33.240002 -44.233223 -610.457825
-32.820000 -44.425587 -613.000732
-31.400000 -44.792999 -618.118164
-30.870001 -44.847530 -618.856201
-30.320000 -44.879402 -619.335266
-29.760000 -44.904678 -619.624146
-29.219999 -44.932194 -620.053406
-28.670000 -44.963196 -620.522461
-28.110001 -44.978886 -620.701782
-27.540001 -44.994572 -620.881104
-26.969999 -44.986729 -620.791443
-26.410000 -45.004658 -621.111084
-25.850000 -45.023830 -621.330261
-25.290001 -45.041260 -621.529480
-24.719999 -45.043877 -621.559387
-24.139999 -45.032543 -621.429871
-23.570000 -45.033417 -621.439819
-23.000000 -45.042133 -621.539490
-22.430000 -45.044746 -621.569336
-21.860001 -45.032543 -621.429871
-21.270000 -44.999428 -621.051331
-20.690001 -44.984985 -620.771545
-20.120001 -44.983242 -620.751587
-19.540001 -44.967552 -620.572266
-18.969999 -44.962322 -620.512512
-18.400000 -44.958340 -620.352234
-17.820000 -44.946140 -620.212769
-17.250000 -44.934811 -620.083252
-16.680000 -44.924351 -619.963745
-16.110001 -44.927837 -620.003601
-15.540000 -44.930450 -620.033447
-14.980000 -44.953983 -620.302429
-14.400000 -44.940910 -620.153015
-13.830000 -44.942654 -620.172913
-13.260000 -44.934811 -620.083252
-12.690000 -44.916508 -619.874084
-12.110000 -44.888119 -619.434875
-11.530000 -44.843174 -618.806396
-10.940000 -44.768097 -617.718811
-10.360000 -44.706593 -616.901062
-9.780000 -44.652931 -616.172974
-9.200000 -44.608856 -615.554443
-8.630000 -44.570011 -614.995728
-8.050000 -44.515476 -614.257629
-7.480000 -44.476257 -613.809387
-6.920000 -44.446999 -613.360229
-6.340000 -44.398567 -612.691895
-5.780000 -44.364079 -612.182983
-5.210000 -44.332207 -611.703918
-4.640000 -44.285141 -611.165955
-4.080000 -44.248913 -610.637085
-3.510000 -44.203094 -609.998657
-2.950000 -44.178192 -609.599304
-2.390000 -44.132378 -608.960876
-1.830000 -44.097015 -608.442017
-1.270000 -44.052567 -607.933960
-0.710000 -44.022438 -607.474792
-0.150000 -43.990566 -606.995789
0.410000 -43.954334 -606.466919
0.960000 -43.909012 -605.948914
1.520000 -43.899799 -605.728882
2.070000 -43.850498 -605.050598
2.630000 -43.807793 -604.562439
3.180000 -43.778530 -604.113281
3.730000 -43.729229 -603.434998
4.280000 -43.686024 -602.826477
4.830000 -43.650665 -602.307556
5.370000 -43.582188 -601.410095
9.170000 -43.239674 -596.692017
9.700000 -43.190746 -595.903259
10.240000 -43.148415 -595.304688
10.770000 -43.085167 -594.466980
11.300000 -43.039349 -593.828552
11.830000 -42.983070 -593.070618
12.370000 -42.952942 -592.611450
12.900000 -42.899281 -591.883362
13.430000 -42.861801 -591.455017
13.960000 -42.810757 -590.756775
14.490000 -42.783241 -590.327576
15.020000 -42.750496 -589.838562
15.550000 -42.713394 -589.299744
16.080000 -42.682892 -588.951050
16.610001 -42.655376 -588.521851
17.129999 -42.623501 -588.042786
17.660000 -42.594742 -587.714050
18.190001 -42.580299 -587.434265
18.719999 -42.549793 -587.085571
19.250000 -42.524021 -586.676270
19.780001 -42.500492 -586.407288
20.299999 -42.483433 -586.097595
20.830000 -42.461643 -585.848572
21.360001 -42.435497 -585.549683
21.889999 -42.426285 -585.329651
22.420000 -42.404495 -585.080627
22.950001 -42.386196 -584.871399
23.469999 -42.375240 -584.631470
24.000000 -42.349964 -584.342529
24.520000 -42.339008 -584.102600
25.049999 -42.321575 -583.903381
25.580000 -42.302402 -583.684204
26.110001 -42.291073 -583.554688
26.639999 -42.284473 -583.364563
27.170000 -42.273144 -583.235046
27.690001 -42.259201 -583.075623
28.219999 -42.247871 -582.946167
28.750000 -42.238281 -582.836548
29.280001 -42.243889 -582.785889
29.820000 -42.236916 -582.706177
30.350000 -42.230816 -582.636475
30.879999 -42.231686 -582.646423
31.420000 -42.229069 -582.616516
31.950001 -42.226456 -582.586670
32.480000 -42.223843 -582.556763
33.020000 -42.226456 -582.586670
33.560001 -42.231686 -582.646423
34.090000 -42.227325 -582.596619
34.630001 -42.228199 -582.606567
35.160000 -42.231686 -582.646423
35.700001 -42.239529 -582.736084
36.240002 -42.236542 -582.816650
36.779999 -42.238281 -582.836548
37.330002 -42.254841 -583.025818
37.869999 -42.267918 -583.175293
38.419998 -42.280117 -583.314758
38.959999 -42.285347 -583.374512
39.500000 -42.284100 -583.474976
40.040001 -42.292816 -583.574646
40.580002 -42.297173 -583.624451
41.130001 -42.309376 -583.763916
41.680000 -42.325935 -583.953186
42.230000 -42.336891 -584.193115
42.799999 -42.369137 -584.561707
43.340000 -42.374367 -584.621521
43.910000 -42.403625 -585.070679
44.480000 -42.425911 -585.440125
-50.910000 -43.612156 -594.179993
-50.340000 -43.585136 -593.871155
-49.759998 -43.561108 -593.481750
-49.200001 -43.545422 -593.302490
-48.650002 -43.539318 -593.232727
-48.110001 -43.548035 -593.332336
-47.570000 -43.558495 -593.451904
-47.029999 -43.555878 -593.421997
-46.470001 -43.547161 -593.322388
-45.930000 -43.547161 -593.322388
-45.380001 -43.548904 -593.342285
-44.840000 -43.555008 -593.412048
-44.320000 -43.568577 -593.681885
-43.810001 -43.608669 -594.140137
-43.320000 -43.667561 -594.927979
-42.840000 -43.726074 -595.826294
-42.320000 -43.764423 -596.264648
-41.799999 -43.780609 -596.564392
-41.279999 -43.818958 -597.002686
-40.770000 -43.856934 -597.551453
-40.259998 -43.896648 -598.120178
-39.759998 -43.952053 -598.868225
-39.279999 -44.032734 -599.905090
-38.790001 -44.100838 -600.913025
-38.270000 -44.129223 -601.352234
-37.740002 -44.160599 -601.710815
-37.209999 -44.185875 -601.999756
-36.680000 -44.216877 -602.468811
-36.160000 -44.253979 -603.007629
-35.680000 -44.342129 -604.244690
-35.169998 -44.397533 -604.992676
-34.680000 -44.485184 -606.109314
-34.189999 -44.565491 -607.256653
-33.740002 -44.704685 -609.191895
-33.220001 -44.762707 -609.969788
-32.779999 -44.933277 -612.263672
-32.310001 -45.049316 -613.819458
-31.820000 -45.158009 -615.406006
-31.340000 -45.280148 -617.031555
-30.840000 -45.369171 -618.278564
-30.290001 -45.396187 -618.587402
-29.740000 -45.431545 -619.106262
-29.190001 -45.459438 -619.425049
-28.629999 -45.471264 -619.674988
-28.070000 -45.491310 -619.904114
-27.500000 -45.488693 -619.874207
-26.940001 -45.500027 -620.003723
-26.370001 -45.507870 -620.093384
-25.809999 -45.523556 -620.272705
-25.240000 -45.527538 -620.432922
-24.670000 -45.521439 -620.363220
-24.100000 -45.526173 -620.302551
-23.530001 -45.522312 -620.373169
-22.969999 -45.533642 -620.502686
-22.389999 -45.530155 -620.462830
-21.820000 -45.524925 -620.403076
-21.240000 -45.514843 -620.173096
-20.670000 -45.515713 -620.183044
-20.100000 -45.498283 -619.983765
-19.520000 -45.489567 -619.884155
-18.950001 -45.486080 -619.844299
-18.379999 -45.479980 -619.774597
-17.809999 -45.475124 -619.604370
-17.230000 -45.460308 -619.434998
-16.660000 -45.453335 -619.355286
-16.090000 -45.456821 -619.395142
-15.530000 -45.461182 -619.444946
-14.960000 -45.464664 -619.484802
-14.390000 -45.460308 -619.434998
-13.810000 -45.440262 -619.205872
-13.240000 -45.433289 -619.126160
-12.670000 -45.415363 -618.806519
-12.090000 -45.386600 -618.477783
-11.510000 -45.325966 -617.669983
-10.920000 -45.261845 -616.822388
-10.340000 -45.214661 -616.053528
-9.770000 -45.159752 -615.425964
-9.190000 -45.127880 -614.946899
-8.620000 -45.091648 -614.418030
-8.050000 -45.046703 -613.789551
-7.480000 -45.010471 -613.260742
-6.910000 -44.954693 -612.623169
-6.340000 -44.919334 -612.104248
-5.770000 -44.877872 -611.515625
-5.210000 -44.848614 -611.066467
-4.640000 -44.805038 -610.568359
-4.080000 -44.770550 -610.059448
-3.510000 -44.726475 -609.440918
-2.950000 -44.691990 -608.932007
-2.390000 -44.647041 -608.303528
-1.830000 -44.598232 -607.745667
-1.270000 -44.562874 -607.226746
-0.710000 -44.532745 -606.767639
-0.150000 -44.497387 -606.248779
0.410000 -44.456425 -605.780518
0.960000 -44.419319 -605.241699
1.520000 -44.384834 -604.732788
2.070000 -44.339512 -604.214783
2.620000 -44.298054 -603.626160
3.170000 -44.248749 -602.947876
3.720000 -44.219490 -602.498718
4.270000 -44.151882 -601.611206
4.820000 -44.112167 -601.042542
5.910000 -44.005714 -599.596313
6.460000 -43.980816 -599.196960
6.990000 -43.892292 -598.070374
7.540000 -43.876980 -597.780579
8.070000 -43.799786 -596.783569
8.610000 -43.754837 -596.155090
9.150000 -43.705536 -595.476807
9.690000 -43.657974 -594.818420
10.220000 -43.602570 -594.070374
10.750000 -43.559364 -593.461853
11.290000 -43.510059 -592.783569
11.810000 -43.455528 -592.045532
12.350000 -43.421535 -591.656982
12.880000 -43.369617 -590.948853
13.410000 -43.338615 -590.479736
13.940000 -43.301514 -589.940918
14.470000 -43.261421 -589.482666
15.000000 -43.232166 -589.033508
15.530000 -43.206394 -588.624207
16.049999 -43.158459 -588.076294
16.580000 -43.136173 -587.706848
17.120001 -43.110897 -587.417969
17.639999 -43.087742 -587.038513
18.170000 -43.061096 -586.619263
18.700001 -43.034950 -586.320374
19.230000 -43.013161 -586.071350
19.760000 -42.995232 -585.751709
20.280001 -42.965599 -585.412964
20.809999 -42.953773 -585.163025
21.340000 -42.931984 -584.914001
21.870001 -42.911938 -584.684875
22.389999 -42.894009 -584.365234
22.920000 -42.877449 -584.175964
23.440001 -42.848690 -583.847229
23.969999 -42.842964 -583.666992
24.500000 -42.820301 -583.408020
25.030001 -42.806358 -583.248596
25.549999 -42.801502 -583.078369
26.080000 -42.784943 -582.889099
26.610001 -42.770126 -582.719788
27.139999 -42.758797 -582.590271
27.660000 -42.753071 -582.410095
28.200001 -42.747841 -582.350281
28.730000 -42.739124 -582.250671
29.250000 -42.727795 -582.121155
29.790001 -42.726925 -582.111206
30.320000 -42.721695 -582.051453
30.850000 -42.714722 -581.971741
31.379999 -42.712109 -581.941833
31.920000 -42.711235 -581.931885
32.450001 -42.709492 -581.911987
32.980000 -42.709492 -581.911987
33.520000 -42.713852 -581.961792
34.049999 -42.712978 -581.951843
34.590000 -42.713852 -581.961792
35.130001 -42.719082 -582.021545
35.660000 -42.721695 -582.051453
36.200001 -42.725182 -582.091309
36.740002 -42.726925 -582.111206
37.279999 -42.736511 -582.220764
37.820000 -42.739998 -582.260620
38.360001 -42.748714 -582.360291
38.889999 -42.741367 -582.390991
39.439999 -42.749210 -582.480652
39.980000 -42.767513 -582.689880
40.529999 -42.778843 -582.819397
41.080002 -42.795403 -583.008667
41.630001 -42.801128 -583.188843
42.169998 -42.813332 -583.328308
42.720001 -42.831635 -583.537537
43.270000 -42.842964 -583.666992
43.820000 -42.853916 -583.906982
44.389999 -42.887909 -584.295471
44.959999 -42.910194 -584.664978
45.509998 -42.926754 -584.854248
46.099998 -42.974316 -585.512573
-50.889999 -44.132668 -593.933655
-50.310001 -44.103413 -593.484497
-49.740002 -44.081623 -593.235474
-49.180000 -44.074154 -593.035339
-48.630001 -44.066311 -592.945679
-48.090000 -44.071537 -593.005493
-47.549999 -44.083740 -593.144958
-47.009998 -44.081997 -593.125000
-46.450001 -44.073280 -593.025391
-45.900002 -44.066311 -592.945679
-45.360001 -44.070667 -592.995544
-44.820000 -44.081123 -593.115051
-44.299999 -44.093822 -593.374939
-43.799999 -44.141762 -593.922852
-43.310001 -44.194176 -594.751404
-42.830002 -44.268753 -595.718628
-42.320000 -44.306232 -596.146973
-41.799999 -44.326775 -596.496521
-41.270000 -44.359894 -596.875061
-40.770000 -44.402225 -597.473633
-40.250000 -44.429741 -597.902893
-39.750000 -44.486015 -598.660889
-39.279999 -44.584126 -599.897034
-38.810001 -44.671406 -601.124084
-38.299999 -44.724194 -601.842224
-37.790001 -44.763039 -602.400940
-37.250000 -44.789188 -602.699829
-36.730000 -44.818443 -603.148987
-36.200001 -44.861153 -603.637085
-35.709999 -44.931870 -604.674927
-35.180000 -44.964115 -605.043518
-34.709999 -45.077541 -606.569397
-34.189999 -45.125973 -607.237732
-33.730000 -45.251225 -609.013550
-33.209999 -45.310116 -609.801453
-32.770000 -45.472347 -611.885254
-32.270000 -45.555267 -613.062500
-31.799999 -45.691353 -614.847412
-31.299999 -45.782990 -616.124268
-30.820000 -45.909485 -617.799622
-30.270000 -45.930027 -618.149170
-29.719999 -45.973606 -618.647278
-29.170000 -45.987175 -618.917114
-28.610001 -46.017681 -619.265808
-28.049999 -46.025524 -619.355469
-27.480000 -46.022911 -619.325562
-26.910000 -46.023781 -619.335510
-26.350000 -46.034241 -619.455078
-25.780001 -46.042580 -619.665161
-25.209999 -46.039097 -619.625305
-24.639999 -46.033867 -619.565491
-24.070000 -46.039097 -619.625305
-23.500000 -46.039097 -619.625305
-22.940001 -46.046940 -619.714966
-22.370001 -46.045197 -619.695007
-21.790001 -46.036480 -619.595398
-21.219999 -46.034737 -619.575500
-20.650000 -46.039471 -619.514832
-20.080000 -46.032124 -619.545593
-19.510000 -46.032497 -619.435120
-18.940001 -46.027267 -619.375366
-18.370001 -46.028141 -619.385315
-17.799999 -46.012451 -619.205994
-17.219999 -46.000252 -619.066528
-16.650000 -45.989792 -618.947021
-16.080000 -45.988918 -618.937073
-15.520000 -45.994148 -618.996826
-14.940000 -45.988049 -618.927063
-14.370000 -45.978462 -618.817505
-13.800000 -45.970119 -618.607422
-13.220000 -45.945717 -618.328491
-12.650000 -45.923058 -618.069458
-12.070000 -45.892925 -617.610352
-11.490000 -45.841881 -616.912170
-10.910000 -45.785603 -616.154175
-10.330000 -45.727585 -615.376282
-9.760000 -45.703552 -614.986877
-9.190000 -45.646904 -614.339355
-8.610000 -45.608059 -613.780640
-8.040000 -45.573570 -613.271667
-7.470000 -45.530369 -612.663147
-6.900000 -45.480690 -612.095276
-6.330000 -45.444458 -611.566467
-5.770000 -45.403870 -610.987793
-5.200000 -45.366768 -610.448975
-4.640000 -45.321445 -609.930969
-4.070000 -45.279987 -609.342346
-3.510000 -45.242886 -608.803528
-2.950000 -45.197067 -608.165039
-2.380000 -45.147388 -607.597229
-1.820000 -45.116386 -607.128174
-1.270000 -45.074928 -606.539551
-0.710000 -45.034836 -606.081299
-0.150000 -45.002090 -605.592285
0.410000 -44.967602 -605.083313
0.960000 -44.918301 -604.405029
1.510000 -44.888664 -604.066345
2.070000 -44.823673 -603.208740
2.620000 -44.791801 -602.729736
3.170000 -44.737267 -601.991638
3.720000 -44.694065 -601.383118
4.270000 -44.648247 -600.744690
4.810000 -44.587238 -600.047302
5.360000 -44.539677 -599.388977
5.900000 -44.483402 -598.630981
6.440000 -44.436710 -597.982605
6.980000 -44.383049 -597.254517
7.520000 -44.338104 -596.626038
8.060000 -44.272240 -595.758484
8.600000 -44.226421 -595.119995
9.130000 -44.180607 -594.481567
9.670000 -44.139145 -593.892944
10.200000 -44.089840 -593.214661
10.740000 -44.037052 -592.496521
11.270000 -43.982143 -591.868958
11.800000 -43.944168 -591.320190
12.330000 -43.893124 -590.621948
12.860000 -43.866478 -590.202698
13.390000 -43.819412 -589.664734
13.920000 -43.784927 -589.155823
14.460000 -43.759651 -588.866882
14.980000 -43.719936 -588.298218
15.510000 -43.691547 -587.859009
16.040001 -43.652328 -587.410706
16.570000 -43.631786 -587.061157
17.090000 -43.594311 -586.632813
17.620001 -43.581612 -586.372925
18.150000 -43.549362 -586.004333
18.680000 -43.533176 -585.704590
19.209999 -43.502674 -585.355957
19.740000 -43.480885 -585.106873
20.260000 -43.466442 -584.827087
20.790001 -43.440296 -584.528259
21.320000 -43.416763 -584.259277
21.840000 -43.409294 -584.059143
22.370001 -43.384022 -583.770264
22.900000 -43.362232 -583.521179
23.420000 -43.349533 -583.261353
23.950001 -43.332100 -583.062073
24.469999 -43.308571 -582.793091
25.000000 -43.306328 -582.652771
25.530001 -43.289768 -582.463501
26.059999 -43.275826 -582.304077
26.580000 -43.261879 -582.144714
27.110001 -43.251423 -582.025146
27.639999 -43.247437 -581.864929
28.170000 -43.235237 -581.725464
28.700001 -43.228264 -581.645752
29.230000 -43.221291 -581.566040
29.760000 -43.213448 -581.476379
30.290001 -43.211704 -581.456482
30.820000 -43.205605 -581.386719
31.350000 -43.207348 -581.406677
31.889999 -43.202118 -581.346863
32.419998 -43.200375 -581.326965
32.950001 -43.201244 -581.336914
33.490002 -43.201244 -581.336914
34.020000 -43.202118 -581.346863
34.549999 -43.198631 -581.307068
35.090000 -43.202988 -581.356873
35.619999 -43.203861 -581.366821
36.160000 -43.209087 -581.426575
36.700001 -43.210831 -581.446533
37.240002 -43.220421 -581.556091
37.770000 -43.222164 -581.575989
38.310001 -43.230877 -581.675659
38.860001 -43.242210 -581.805115
39.400002 -43.249180 -581.884827
39.939999 -43.245319 -581.955444
40.480000 -43.253162 -582.045105
41.020000 -43.259266 -582.114807
41.560001 -43.271465 -582.254272
42.110001 -43.282799 -582.383789
42.660000 -43.305458 -582.642822
43.209999 -43.313797 -582.852905
43.770000 -43.339947 -583.151733
44.320000 -43.350403 -583.271301
44.880001 -43.370075 -583.610840
45.430000 -43.384892 -583.780212
46.000000 -43.410664 -584.189514
46.560001 -43.442909 -584.558105
47.150002 -43.486115 -585.166687
96.830002 -42.641094 -573.786987
97.239998 -42.590919 -573.098755
97.720001 -42.569130 -572.849731
98.279999 -42.586563 -573.048950
-51.450001 -44.691036 -594.005310
-50.869999 -44.657043 -593.616760
-50.279999 -44.624298 -593.127747
-49.720001 -44.605125 -592.908630
-49.150002 -44.597656 -592.708496
-48.599998 -44.591557 -592.638733
-48.070000 -44.597656 -592.708496
-47.529999 -44.598152 -592.828918
-46.980000 -44.592052 -592.759155
-46.430000 -44.595913 -592.688599
-45.880001 -44.586327 -592.578979
-45.330002 -44.586327 -592.578979
-44.799999 -44.594666 -592.789063
-44.279999 -44.617329 -593.048096
-43.790001 -44.670116 -593.766174
-43.310001 -44.743824 -594.723450
-42.830002 -44.812302 -595.620850
-42.310001 -44.841934 -595.959595
-41.790001 -44.865093 -596.338989
-41.270000 -44.898708 -596.837952
-40.770000 -44.948387 -597.405823
-40.250000 -44.978519 -597.864929
-39.740002 -45.027821 -598.543213
-39.270000 -45.123318 -599.749451
-38.840000 -45.260277 -601.544373
-38.349998 -45.320534 -602.462585
-37.830002 -45.367599 -603.000549
-37.299999 -45.393372 -603.409851
-36.770000 -45.423004 -603.748596
-36.259998 -45.481022 -604.526489
-35.720001 -45.510654 -604.865173
-35.220001 -45.574402 -605.823242
-34.730000 -45.661182 -606.929932
-34.220001 -45.717461 -607.687927
-33.740002 -45.821297 -609.104248
-33.220001 -45.877571 -609.862244
-32.759998 -46.022373 -611.746765
-32.250000 -46.103054 -612.783691
-31.790001 -46.230919 -614.589417
-31.270000 -46.308983 -615.596436
-30.790001 -46.439838 -617.321594
-30.250000 -46.474701 -617.720093
-29.700001 -46.502216 -618.149292
-29.150000 -46.536209 -618.537842
-28.600000 -46.553265 -618.847534
-28.030001 -46.561108 -618.937195
-27.459999 -46.560238 -618.927185
-26.889999 -46.557621 -618.897339
-26.330000 -46.565468 -618.987000
-25.770000 -46.582027 -619.176270
-25.200001 -46.579411 -619.146362
-24.620001 -46.575924 -619.106506
-24.049999 -46.562851 -618.957092
-23.490000 -46.575054 -619.096558
-22.930000 -46.594227 -619.315735
-22.350000 -46.588127 -619.245972
-21.780001 -46.577667 -619.126465
-21.209999 -46.575924 -619.106506
-20.639999 -46.579411 -619.146362
-20.070000 -46.575054 -619.096558
-19.500000 -46.568951 -619.026855
-18.930000 -46.569824 -619.036804
-18.360001 -46.561108 -618.937195
-17.790001 -46.552395 -618.837585
-17.209999 -46.543179 -618.617493
-16.639999 -46.534466 -618.517883
-16.070000 -46.535336 -618.527893
-15.510000 -46.541435 -618.597595
-14.930000 -46.524006 -618.398376
-14.360000 -46.503960 -618.169250
-13.790000 -46.485657 -617.960022
-13.210000 -46.479061 -617.769897
-12.640000 -46.445942 -617.391357
-12.060000 -46.409710 -616.862488
-11.480000 -46.352562 -616.094543
-10.900000 -46.306370 -615.566528
-10.320000 -46.254452 -614.858398
-9.750000 -46.220837 -614.359436
-9.180000 -46.175888 -613.730957
-8.610000 -46.133183 -613.242798
-8.030000 -46.086494 -612.594421
-7.470000 -46.052876 -612.095459
-6.900000 -46.000584 -611.497742
-6.330000 -45.959995 -610.919067
-5.760000 -45.923763 -610.390198
-5.200000 -45.881058 -609.902039
-4.630000 -45.836983 -609.283569
-4.070000 -45.792038 -608.655090
-3.500000 -45.752319 -608.086365
-2.940000 -45.703514 -607.528503
-2.380000 -45.663795 -606.959778
-1.820000 -45.622337 -606.371155
-1.260000 -45.569172 -605.763489
-0.710000 -45.543400 -605.354187
-0.150000 -45.498455 -604.725708
0.400000 -45.452263 -604.197754
0.960000 -45.412544 -603.629028
1.510000 -45.364983 -602.970642
2.060000 -45.331367 -602.471680
2.610000 -45.265503 -601.604126
3.160000 -45.220184 -601.086121
3.710000 -45.160419 -600.288269
4.260000 -45.124191 -599.759460
4.800000 -45.070526 -599.031311
5.350000 -45.025581 -598.402893
5.890000 -44.962334 -597.565186
6.430000 -44.913525 -597.007324
6.970000 -44.856377 -596.239380
7.510000 -44.806202 -595.551147
8.050000 -44.749928 -594.793152
8.590000 -44.711082 -594.234436
9.120000 -44.659161 -593.526245
9.660000 -44.605125 -592.908630
10.190000 -44.562794 -592.309998
10.720000 -44.516106 -591.661621
11.250000 -44.476387 -591.092896
11.780000 -44.418369 -590.315002
12.320000 -44.393093 -590.026123
12.850000 -44.350761 -589.427551
13.380000 -44.306313 -588.919495
13.910000 -44.273567 -588.430481
14.430000 -44.235222 -587.992126
14.960000 -44.211189 -587.602722
15.490000 -44.172840 -587.164429
16.020000 -44.147072 -586.755127
16.549999 -44.115692 -586.396484
17.080000 -44.096893 -586.066833
17.610001 -44.069004 -585.748108
18.129999 -44.045849 -585.368652
18.660000 -44.021442 -585.089722
19.190001 -43.996544 -584.690369
19.719999 -43.979115 -584.491150
20.240000 -43.952095 -584.182312
20.770000 -43.932919 -583.963135
21.299999 -43.917606 -583.673401
21.820000 -43.900177 -583.474121
22.350000 -43.873158 -583.165344
22.879999 -43.864819 -582.955261
23.400000 -43.837799 -582.646423
23.930000 -43.826469 -582.516907
24.450001 -43.814640 -582.267029
24.980000 -43.800697 -582.107605
25.500000 -43.778908 -581.858582
26.030001 -43.768448 -581.739014
26.559999 -43.752762 -581.559692
27.090000 -43.751392 -581.429321
27.610001 -43.737446 -581.269958
28.139999 -43.728733 -581.170288
28.670000 -43.726116 -581.140442
29.200001 -43.714787 -581.010925
29.730000 -43.710430 -580.961121
30.260000 -43.706070 -580.911316
30.790001 -43.703457 -580.881409
31.320000 -43.695614 -580.791748
31.860001 -43.694740 -580.781799
32.389999 -43.693871 -580.771851
32.919998 -43.692127 -580.751892
33.459999 -43.692997 -580.761902
33.990002 -43.693871 -580.771851
34.520000 -43.687771 -580.702087
35.049999 -43.687771 -580.702087
35.590000 -43.687771 -580.702087
36.119999 -43.694740 -580.781799
36.660000 -43.698227 -580.821655
37.200001 -43.702583 -580.871460
37.730000 -43.702583 -580.871460
38.270000 -43.707813 -580.931213
38.799999 -43.708687 -580.941223
39.349998 -43.722630 -581.100586
39.880001 -43.726116 -581.140442
40.430000 -43.736576 -581.259949
40.970001 -43.743172 -581.450134
41.520000 -43.755375 -581.589600
42.060001 -43.766705 -581.719116
42.610001 -43.788494 -581.968140
43.150002 -43.794594 -582.037903
43.700001 -43.805927 -582.167358
44.250000 -43.813396 -582.367493
44.820000 -43.849998 -582.785889
45.369999 -43.865314 -583.075684
45.930000 -43.885361 -583.304810
46.490002 -43.908020 -583.563782
47.060001 -43.936405 -584.002991
47.610001 -43.951221 -584.172363
48.169998 -43.982597 -584.531006
48.779999 -44.040619 -585.308899
96.370003 -43.191364 -574.110291
96.739998 -43.120274 -573.182983
97.180000 -43.088398 -572.703918
97.660004 -43.065739 -572.444885
98.220001 -43.081429 -572.624207
98.830002 -43.121517 -573.082458
99.500000 -43.184769 -573.920166
-51.400002 -45.188393 -593.379578
-50.840000 -45.175320 -593.230103
-50.259998 -45.154778 -592.880615
-49.689999 -45.128628 -592.581726
-49.139999 -45.117298 -592.452209
-48.590000 -45.110325 -592.372559
-48.049999 -45.119915 -592.482117
-47.509998 -45.120785 -592.492065
-46.959999 -45.115555 -592.432312
-46.410000 -45.109455 -592.362549
-45.860001 -45.103355 -592.292847
-45.310001 -45.104225 -592.302795
-44.779999 -45.119041 -592.472168
-44.270000 -45.154778 -592.880615
-43.790001 -45.217152 -593.708313
-43.320000 -45.299576 -594.765137
-42.830002 -45.359341 -595.562988
-42.299999 -45.375523 -595.862671
-41.790001 -45.411259 -596.271118
-41.270000 -45.446617 -596.790039
-40.770000 -45.498039 -597.377808
-40.250000 -45.527298 -597.826965
-39.740002 -45.576599 -598.505249
-39.270000 -45.659897 -599.572021
-38.849998 -45.821255 -601.645874
-38.369999 -45.898075 -602.753357
-37.869999 -45.967800 -603.550354
-37.349998 -46.006645 -604.109070
-36.840000 -46.066406 -604.906921
-36.310001 -46.096039 -605.245605
-35.790001 -46.147087 -605.943787
-35.290001 -46.212952 -606.811401
-34.759998 -46.253540 -607.390015
-34.279999 -46.356880 -608.685974
-33.750000 -46.393982 -609.224792
-33.259998 -46.492092 -610.460938
-32.770000 -46.595058 -611.867310
-32.259998 -46.671383 -612.854431
-31.790001 -46.797009 -614.519836
-31.260000 -46.856770 -615.317627
-30.780001 -46.973679 -616.883423
-30.230000 -47.009415 -617.291870
-29.690001 -47.043030 -617.790833
-29.129999 -47.074406 -618.149414
-28.580000 -47.097565 -618.528870
-28.020000 -47.108894 -618.658386
-27.450001 -47.095821 -618.508972
-26.879999 -47.099304 -618.548767
-26.320000 -47.114124 -618.718140
-25.750000 -47.121094 -618.797852
-25.180000 -47.115868 -618.738037
-24.610001 -47.102795 -618.588623
-24.030001 -47.095821 -618.508972
-23.480000 -47.118481 -618.767944
-22.910000 -47.135040 -618.957214
-22.340000 -47.126324 -618.857605
-21.770000 -47.110638 -618.678284
-21.200001 -47.117607 -618.757996
-20.629999 -47.122837 -618.817749
-20.059999 -47.117607 -618.757996
-19.490000 -47.114124 -618.718140
-18.920000 -47.115868 -618.738037
-18.350000 -47.108894 -618.658386
-17.780001 -47.090591 -618.449158
-17.200001 -47.083122 -618.249084
-16.629999 -47.078766 -618.199280
-16.070000 -47.080505 -618.219177
-15.500000 -47.082249 -618.239075
-14.920000 -47.059589 -617.980103
-14.350000 -47.040417 -617.760925
-13.780000 -47.031204 -617.540894
-13.200000 -47.008541 -617.281860
-12.630000 -46.966709 -616.803711
-12.050000 -46.927860 -616.244995
-11.470000 -46.876816 -615.546753
-10.890000 -46.834484 -614.948181
-10.320000 -46.789162 -614.430176
-9.740000 -46.745087 -613.811646
-9.170000 -46.702759 -613.213074
-8.600000 -46.654819 -612.665161
-8.030000 -46.609875 -612.036682
-7.460000 -46.576756 -611.658142
-6.890000 -46.531811 -611.029663
-6.320000 -46.493835 -610.480835
-5.760000 -46.438057 -609.843323
-5.190000 -46.398338 -609.274597
-4.630000 -46.353394 -608.646118
-4.060000 -46.303715 -608.078308
-3.500000 -46.260509 -607.469727
-2.940000 -46.216438 -606.851196
-2.380000 -46.163273 -606.243530
-1.820000 -46.126171 -605.704712
-1.260000 -46.089066 -605.165894
-0.710000 -46.031544 -604.508423
-0.150000 -45.999672 -604.029358
0.400000 -45.959084 -603.450684
0.960000 -45.898945 -602.763367
1.510000 -45.867073 -602.284302
2.060000 -45.800339 -601.406799
2.610000 -45.774567 -600.997437
3.160000 -45.701355 -600.160645
3.710000 -45.664253 -599.621826
4.250000 -45.595776 -598.724365
4.800000 -45.570873 -598.325073
5.340000 -45.491066 -597.298096
5.880000 -45.455334 -596.889648
6.420000 -45.385983 -595.982239
6.960000 -45.351494 -595.473328
7.500000 -45.283016 -594.575867
8.040000 -45.247284 -594.167419
8.570000 -45.174446 -593.220154
9.110000 -45.149548 -592.820801
9.640000 -45.086300 -591.983154
10.180000 -45.043591 -591.494995
10.710000 -44.999516 -590.876526
11.240000 -44.957184 -590.277893
11.770000 -44.904892 -589.680176
12.300000 -44.877377 -589.250977
12.830000 -44.837284 -588.792725
13.360000 -44.808899 -588.353516
13.890000 -44.770924 -587.804749
14.420000 -44.732574 -587.366394
14.950000 -44.705063 -586.937195
15.480000 -44.677170 -586.618408
16.010000 -44.640568 -586.200012
16.530001 -44.616535 -585.810608
17.059999 -44.588646 -585.491821
17.590000 -44.572464 -585.192078
18.120001 -44.543701 -584.863342
18.639999 -44.512325 -584.504700
19.170000 -44.500500 -584.254822
19.700001 -44.475224 -583.965881
20.219999 -44.447334 -583.647095
20.750000 -44.433762 -583.377258
21.280001 -44.408489 -583.088379
21.799999 -44.389313 -582.869202
22.330000 -44.380974 -582.659119
22.860001 -44.360058 -582.420044
23.379999 -44.340881 -582.200867
23.910000 -44.319092 -581.951843
24.430000 -44.310753 -581.741760
24.959999 -44.295937 -581.572388
25.490000 -44.280247 -581.393127
26.010000 -44.269787 -581.273560
26.540001 -44.257587 -581.134094
27.070000 -44.246258 -581.004578
27.590000 -44.237915 -580.794495
28.120001 -44.231815 -580.724792
28.650000 -44.223972 -580.635132
29.180000 -44.216125 -580.545471
29.709999 -44.208282 -580.455811
30.240000 -44.199566 -580.356201
30.770000 -44.196079 -580.316345
31.299999 -44.190849 -580.256592
31.830000 -44.193466 -580.286438
32.360001 -44.189110 -580.236633
32.889999 -44.184750 -580.186829
33.419998 -44.183880 -580.176880
33.959999 -44.182137 -580.156921
34.490002 -44.183006 -580.166931
35.020000 -44.180393 -580.137024
35.549999 -44.183006 -580.166931
36.090000 -44.179520 -580.127075
36.619999 -44.186493 -580.206726
37.160000 -44.188236 -580.226685
37.689999 -44.191723 -580.266541
38.230000 -44.199566 -580.356201
38.770000 -44.201309 -580.376099
39.310001 -44.209152 -580.465759
39.840000 -44.215256 -580.535522
40.380001 -44.223099 -580.625183
40.919998 -44.229198 -580.694885
41.470001 -44.241402 -580.834351
42.009998 -44.247997 -581.024536
42.560001 -44.259331 -581.153992
43.099998 -44.274147 -581.323364
43.650002 -44.292450 -581.532593
44.200001 -44.308136 -581.711853
44.750000 -44.316479 -581.921936
45.299999 -44.330421 -582.081360
45.860001 -44.354828 -582.360291
46.419998 -44.375370 -582.709839
46.980000 -44.403259 -583.028625
47.529999 -44.419819 -583.217896
48.099998 -44.440361 -583.567444
48.660000 -44.469994 -583.906128
49.250000 -44.508839 -584.464844
49.799999 -44.520168 -584.594360
50.389999 -44.571217 -585.292603
95.940002 -43.763424 -574.682617
96.320000 -43.695816 -573.795105
96.699997 -43.630825 -572.937500
97.129997 -43.591980 -572.378784
97.629997 -43.578903 -572.229370
98.160004 -43.578903 -572.229370
98.769997 -43.620739 -572.707520
99.410004 -43.667431 -573.355896
100.080002 -43.728062 -574.163696
-51.369999 -45.713638 -593.072632
-50.810001 -45.691849 -592.823547
-50.240002 -45.671803 -592.594421
-49.669998 -45.654747 -592.284729
-49.119999 -45.643417 -592.155273
-48.570000 -45.641674 -592.135315
-48.029999 -45.641674 -592.135315
-47.480000 -45.643417 -592.155273
-46.930000 -45.632957 -592.035706
-46.380001 -45.629471 -591.995850
-45.840000 -45.628601 -591.985901
-45.299999 -45.633831 -592.045654
-44.770000 -45.654747 -592.284729
-44.259998 -45.683132 -592.723938
-43.799999 -45.769917 -593.830566
-43.330002 -45.848850 -594.847595
-42.820000 -45.888569 -595.416260
-42.290001 -45.910358 -595.665344
-41.779999 -45.950451 -596.123596
-41.270000 -45.989292 -596.682312
-40.770000 -46.035110 -597.320740
-40.259998 -46.083920 -597.878601
-39.740002 -46.121895 -598.427429
-39.250000 -46.192986 -599.354736
-38.830002 -46.344761 -601.318970
-38.380001 -46.475990 -602.933716
-37.919998 -46.584183 -604.399841
-37.419998 -46.644817 -605.207642
-36.910000 -46.707195 -606.035339
-36.380001 -46.743801 -606.453735
-35.849998 -46.777416 -606.952698
-35.330002 -46.823608 -607.480713
-34.820000 -46.892960 -608.388123
-34.299999 -46.946621 -609.116211
-33.799999 -47.019459 -610.063477
-33.310001 -47.119312 -611.319519
-32.779999 -47.171230 -612.027710
-32.290001 -47.282413 -613.413269
-31.780001 -47.359608 -614.410339
-31.260000 -47.415886 -615.168335
-30.760000 -47.517979 -616.564758
-30.219999 -47.557198 -617.013062
-29.670000 -47.582970 -617.422363
-29.120001 -47.616962 -617.810852
-28.570000 -47.649208 -618.179443
-28.010000 -47.649708 -618.299866
-27.440001 -47.650578 -618.309814
-26.870001 -47.648834 -618.289917
-26.309999 -47.666267 -618.489136
-25.740000 -47.668011 -618.509094
-25.170000 -47.653191 -618.339722
-24.590000 -47.652695 -618.219299
-24.020000 -47.651825 -618.209351
-23.459999 -47.657551 -618.389526
-22.900000 -47.676723 -618.608704
-22.330000 -47.674980 -618.588745
-21.760000 -47.657551 -618.389526
-21.190001 -47.665394 -618.479187
-20.620001 -47.667137 -618.499084
-20.049999 -47.664524 -618.469238
-19.490000 -47.663651 -618.459290
-18.920000 -47.667137 -618.499084
-18.350000 -47.654934 -618.359619
-17.770000 -47.642239 -618.099792
-17.200001 -47.630905 -617.970276
-16.629999 -47.625675 -617.910461
-16.059999 -47.626549 -617.920471
-15.490000 -47.613476 -617.770996
-14.910000 -47.588200 -617.482117
-14.340000 -47.579487 -617.382507
-13.770000 -47.565044 -617.102722
-13.190000 -47.531052 -616.714172
-12.620000 -47.494823 -616.185303
-12.040000 -47.453857 -615.717102
-11.460000 -47.390610 -614.879456
-10.890000 -47.355747 -614.480957
-10.310000 -47.303829 -613.772766
-9.740000 -47.276314 -613.343567
-9.160000 -47.218792 -612.686096
-8.590000 -47.178204 -612.107422
-8.020000 -47.142845 -611.588501
-7.450000 -47.084450 -610.921082
-6.880000 -47.049961 -610.412109
-6.320000 -47.004642 -609.894104
-5.750000 -46.964924 -609.325378
-5.190000 -46.915619 -608.647095
-4.620000 -46.855480 -607.959717
-4.060000 -46.823608 -607.480713
-3.500000 -46.775177 -606.812378
-2.940000 -46.722885 -606.214661
-2.380000 -46.676193 -605.566284
-1.820000 -46.628258 -605.018372
-1.260000 -46.585056 -604.409790
-0.710000 -46.554054 -603.940735
-0.150000 -46.488689 -603.193604
0.400000 -46.449841 -602.634827
0.960000 -46.397923 -601.926697
1.510000 -46.342144 -601.289124
2.060000 -46.300686 -600.700500
2.610000 -46.247894 -599.982361
3.160000 -46.203445 -599.474304
3.700000 -46.146297 -598.706360
4.250000 -46.102222 -598.087830
4.790000 -46.035488 -597.210327
5.330000 -45.992783 -596.722168
5.870000 -45.926044 -595.844666
6.410000 -45.886330 -595.275940
6.950000 -45.826565 -594.478149
7.490000 -45.782116 -593.970032
8.030000 -45.722355 -593.172241
8.560000 -45.681767 -592.593567
9.100000 -45.631214 -592.015747
9.630000 -45.581039 -591.327515
10.160000 -45.529617 -590.739746
10.690000 -45.482056 -590.081421
11.230000 -45.441467 -589.502747
11.760000 -45.394405 -588.964783
12.290000 -45.369503 -588.565430
12.820000 -45.323311 -588.037476
13.350000 -45.298412 -587.638123
13.880000 -45.256577 -587.159973
14.410000 -45.234291 -586.790466
14.940000 -45.196815 -586.362122
15.460000 -45.171913 -585.962769
15.990000 -45.134438 -585.534424
16.520000 -45.109161 -585.245483
17.049999 -45.085133 -584.856140
17.570000 -45.058987 -584.557251
18.100000 -45.027611 -584.198608
18.629999 -45.017525 -583.968628
19.150000 -44.985279 -583.600037
19.680000 -44.970463 -583.430725
20.200001 -44.941204 -582.981567
20.730000 -44.923775 -582.782288
21.260000 -44.905472 -582.573120
21.790001 -44.888908 -582.383850
22.309999 -44.876213 -582.123962
22.840000 -44.860523 -581.944641
23.360001 -44.836990 -581.675659
23.889999 -44.818687 -581.466431
24.410000 -44.805119 -581.196594
24.940001 -44.790302 -581.027222
25.469999 -44.785072 -580.967468
25.990000 -44.767643 -580.768250
26.520000 -44.751083 -580.578979
27.049999 -44.740623 -580.459412
27.570000 -44.725807 -580.290039
28.100000 -44.730541 -580.229431
28.629999 -44.720955 -580.119873
29.160000 -44.713108 -580.030212
29.680000 -44.707008 -579.960449
30.209999 -44.702648 -579.910645
30.740000 -44.695679 -579.830933
31.280001 -44.694805 -579.820984
31.809999 -44.690449 -579.771179
32.340000 -44.687832 -579.741272
32.869999 -44.682606 -579.681519
33.400002 -44.681732 -579.671570
33.930000 -44.681732 -579.671570
34.459999 -44.678246 -579.631714
34.990002 -44.678246 -579.631714
35.520000 -44.674759 -579.591858
36.060001 -44.679989 -579.651611
36.590000 -44.679989 -579.651611
37.119999 -44.681732 -579.671570
37.660000 -44.681732 -579.671570
38.189999 -44.681732 -579.671570
38.730000 -44.690449 -579.771179
39.259998 -44.694805 -579.820984
39.799999 -44.703522 -579.920593
40.340000 -44.710495 -580.000305
40.880001 -44.714851 -580.050110
41.419998 -44.728798 -580.209473
41.959999 -44.726681 -580.300049
42.509998 -44.747597 -580.539124
43.049999 -44.754566 -580.618835
43.599998 -44.772869 -580.828003
44.150002 -44.785946 -580.977417
44.700001 -44.799515 -581.247314
45.259998 -44.819561 -581.476440
45.810001 -44.839607 -581.705566
46.360001 -44.855293 -581.884827
46.910000 -44.870983 -582.064148
47.470001 -44.886295 -582.353943
48.040001 -44.930744 -582.862000
48.599998 -44.940830 -583.091980
49.160000 -44.962620 -583.341064
49.709999 -44.986149 -583.609985
50.290001 -45.020638 -584.118958
50.849998 -45.038940 -584.328125
95.570000 -44.359882 -575.533875
95.910004 -44.271358 -574.407288
96.290001 -44.206367 -573.549683
96.690002 -44.152706 -572.821594
97.120003 -44.115604 -572.282776
97.610001 -44.094688 -572.043701
98.150002 -44.103401 -572.143311
98.739998 -44.123943 -572.492859
99.370003 -44.176239 -573.090576
100.059998 -44.244717 -573.988037
-51.349998 -46.237141 -592.745728
-50.779999 -46.214481 -592.486755
-50.209999 -46.190948 -592.217773
-49.650002 -46.171776 -591.998596
-49.099998 -46.171280 -591.878174
-48.549999 -46.166920 -591.828369
-48.009998 -46.170406 -591.868225
-47.470001 -46.173893 -591.908081
-46.910000 -46.165176 -591.808472
-46.360001 -46.156464 -591.708801
-45.820000 -46.159077 -591.738708
-45.279999 -46.160820 -591.758667
-44.759998 -46.179619 -592.088257
-44.259998 -46.235397 -592.725830
-43.820000 -46.333134 -594.072449
-43.330002 -46.394142 -594.769775
-42.820000 -46.429504 -595.288635
-42.290001 -46.446934 -595.487915
-41.770000 -46.486153 -595.936157
-41.259998 -46.525871 -596.504883
-40.770000 -46.581276 -597.252930
-40.259998 -46.631824 -597.830688
-39.740002 -46.670673 -598.389465
-39.250000 -46.737408 -599.266968
-38.820000 -46.890427 -601.130737
-38.380001 -47.023895 -602.885742
-37.950001 -47.165211 -604.730469
-37.459999 -47.251991 -605.837097
-36.950001 -47.308270 -606.595093
-36.410000 -47.334415 -606.893921
-35.889999 -47.387581 -607.501648
-35.380001 -47.446472 -608.289490
-34.869999 -47.521049 -609.256653
-34.360001 -47.576454 -610.004700
-33.849998 -47.652779 -610.991821
-33.330002 -47.713787 -611.689148
-32.820000 -47.788364 -612.656311
-32.320000 -47.881248 -613.832703
-31.790001 -47.926193 -614.461182
-31.270000 -47.991184 -615.318787
-30.750000 -48.069248 -616.325806
-30.200001 -48.103241 -616.714294
-29.660000 -48.129887 -617.133606
-29.110001 -48.163876 -617.522095
-28.559999 -48.196121 -617.890686
-27.990000 -48.201351 -617.950439
-27.430000 -48.203094 -617.970398
-26.860001 -48.204464 -618.100769
-26.299999 -48.218410 -618.260132
-25.730000 -48.220154 -618.280090
-25.160000 -48.198364 -618.031006
-24.580000 -48.196121 -617.890686
-24.010000 -48.198738 -617.920593
-23.459999 -48.212307 -618.190430
-22.889999 -48.227123 -618.359802
-22.320000 -48.214924 -618.220337
-21.750000 -48.212307 -618.190430
-21.190001 -48.220154 -618.280090
-20.620001 -48.218410 -618.260132
-20.049999 -48.215794 -618.230286
-19.480000 -48.218410 -618.260132
-18.910000 -48.216667 -618.240234
-18.340000 -48.203590 -618.090820
-17.760000 -48.192638 -617.850830
-17.190001 -48.182178 -617.731323
-16.620001 -48.178692 -617.691467
-16.049999 -48.176079 -617.661560
-15.480000 -48.153416 -617.402527
-14.900000 -48.125526 -617.083801
-14.330000 -48.119801 -616.903564
-13.760000 -48.096268 -616.634644
-13.180000 -48.060535 -616.226196
-12.610000 -48.032146 -615.786987
-12.030000 -47.969395 -615.069702
-11.450000 -47.931423 -614.520935
-10.880000 -47.882614 -613.963074
-10.300000 -47.836796 -613.324646
-9.730000 -47.797577 -612.876343
-9.160000 -47.741302 -612.118347
-8.590000 -47.710300 -611.649292
-8.020000 -47.654518 -611.011719
-7.450000 -47.617416 -610.472900
-6.880000 -47.564255 -609.865234
-6.310000 -47.522793 -609.276611
-5.750000 -47.471371 -608.688843
-5.180000 -47.433395 -608.140076
-4.620000 -47.388451 -607.511597
-4.060000 -47.340515 -606.963684
-3.490000 -47.282497 -606.185791
-2.930000 -47.236301 -605.657776
-2.370000 -47.188744 -604.999451
-1.820000 -47.145538 -604.390869
-1.260000 -47.089760 -603.753296
-0.700000 -47.046558 -603.144775
-0.150000 -46.986420 -602.457397
0.400000 -46.940601 -601.818970
0.960000 -46.894783 -601.180542
1.510000 -46.850334 -600.672485
2.060000 -46.786213 -599.824829
2.600000 -46.745625 -599.246155
3.150000 -46.688972 -598.598633
3.700000 -46.646645 -598.000061
4.240000 -46.586880 -597.202209
4.790000 -46.538074 -596.644348
5.330000 -46.472210 -595.776794
5.870000 -46.428631 -595.278687
6.410000 -46.358410 -594.361328
6.950000 -46.327408 -593.892212
7.480000 -46.258060 -592.984802
8.020000 -46.216225 -592.506653
8.550000 -46.154720 -591.688904
9.090000 -46.117241 -591.260559
9.620000 -46.064453 -590.542419
10.150000 -46.019131 -590.024414
10.680000 -45.974182 -589.395935
11.210000 -45.937954 -588.867065
11.740000 -45.892632 -588.349060
12.280000 -45.857773 -587.950562
12.810000 -45.823284 -587.441650
13.330000 -45.780579 -586.953491
13.860000 -45.751320 -586.504333
14.390000 -45.726913 -586.225403
14.920000 -45.691555 -585.706482
15.450000 -45.662796 -585.377747
15.980000 -45.633163 -585.039063
16.500000 -45.610874 -584.669617
17.030001 -45.575142 -584.261169
17.559999 -45.555096 -584.032043
18.090000 -45.528076 -583.723206
18.610001 -45.512764 -583.433472
19.139999 -45.484875 -583.114685
19.670000 -45.465702 -582.895508
20.190001 -45.446899 -582.565857
20.719999 -45.430344 -582.376587
21.240000 -45.405937 -582.097656
21.770000 -45.386765 -581.878479
22.290001 -45.367588 -581.659363
22.820000 -45.360119 -581.459229
23.340000 -45.333973 -581.160400
23.870001 -45.321774 -581.020935
24.389999 -45.300854 -580.781799
24.920000 -45.289524 -580.652344
25.450001 -45.279442 -580.422302
25.969999 -45.269852 -580.312744
26.500000 -45.249805 -580.083618
27.020000 -45.241093 -579.984009
27.549999 -45.229759 -579.854492
28.080000 -45.220173 -579.744934
28.610001 -45.213203 -579.665222
29.139999 -45.209717 -579.625366
29.670000 -45.202744 -579.545654
30.200001 -45.197514 -579.485901
30.719999 -45.199631 -579.395386
31.250000 -45.194401 -579.335571
31.780001 -45.190914 -579.295776
32.310001 -45.188301 -579.265869
32.840000 -45.183071 -579.206116
33.369999 -45.180458 -579.176208
33.900002 -45.176102 -579.126404
34.430000 -45.176102 -579.126404
