1401
117.309998 -43.530930 -608.511597
117.919998 -43.549232 -608.720825
118.519997 -43.559315 -608.950806
119.110001 -43.570644 -609.080322
119.720001 -43.595921 -609.369202
-50.029999 -43.716156 -603.285583
-49.450001 -43.694740 -602.926086
-48.869999 -43.668594 -602.627197
-48.299999 -43.657639 -602.387268
-47.740002 -43.651539 -602.317505
-47.180000 -43.644566 -602.237793
-46.630001 -43.647179 -602.267700
-46.080002 -43.657639 -602.387268
-45.549999 -43.670338 -602.647156
-45.040001 -43.710052 -603.215820
-44.560001 -43.790733 -604.252747
-44.080002 -43.857967 -605.250671
-43.549999 -43.888470 -605.599365
-43.000000 -43.897186 -605.698975
-42.450001 -43.901169 -605.859253
-41.910000 -43.920341 -606.078430
-41.400002 -43.967033 -606.726807
-40.900002 -44.025051 -607.504700
-40.389999 -44.081329 -608.262695
-39.869999 -44.120174 -608.821411
-39.349998 -44.159019 -609.380188
-38.810001 -44.187405 -609.819336
-38.290001 -44.235340 -610.367249
-37.750000 -44.255013 -610.706848
-37.230000 -44.301701 -611.355225
-36.689999 -44.336563 -611.753723
-36.160000 -44.369308 -612.242737
-35.639999 -44.429070 -613.040527
-35.110001 -44.465302 -613.569397
-34.599998 -44.525562 -614.487671
-34.099998 -44.617573 -615.654053
-33.560001 -44.655544 -616.202881
-33.220001 -44.952736 -620.402954
-32.750000 -45.087952 -622.177917
-30.760000 -45.520851 -628.273376
-30.200001 -45.542641 -628.522400
-29.639999 -45.566669 -628.911804
-29.070000 -45.589333 -629.170837
-28.500000 -45.593689 -629.220642
-27.920000 -45.600662 -629.300293
-27.340000 -45.598045 -629.270447
-26.760000 -45.586716 -629.140930
-26.170000 -45.573147 -628.871094
-25.580000 -45.548740 -628.592163
-24.980000 -45.522099 -628.172852
-20.750000 -45.102390 -622.457703
-20.150000 -45.051720 -621.649048
-19.559999 -45.002041 -621.081238
-18.980000 -44.970169 -620.602173
-15.330000 -44.339676 -611.903992
-14.750000 -44.276802 -610.955872
-14.180000 -44.248913 -610.637085
-13.620000 -44.257626 -610.736755
-13.070000 -44.313904 -611.494690
-12.530000 -44.357979 -612.113220
-11.970000 -44.381512 -612.382202
-11.410000 -44.379391 -612.472717
-10.850000 -44.405540 -612.771606
-10.300000 -44.443512 -613.320374
-9.740000 -44.491074 -613.978699
-9.190000 -44.526806 -614.387146
-8.620000 -44.532532 -614.567322
-8.060000 -44.528175 -614.517517
-7.490000 -44.533405 -614.577332
-6.930000 -44.540379 -614.656982
-6.370000 -44.549091 -614.756653
-5.800000 -44.553452 -614.806458
-5.240000 -44.558681 -614.866211
-4.670000 -44.532532 -614.567322
-4.100000 -44.498047 -614.058411
-3.530000 -44.448742 -613.380127
-2.970000 -44.388107 -612.572327
-2.400000 -44.304317 -611.385132
-1.830000 -44.217037 -610.158081
-1.270000 -44.121918 -608.841370
-0.710000 -44.060410 -608.023621
-0.150000 -44.003639 -607.145203
0.410000 -43.935162 -606.247742
0.960000 -43.868423 -605.370239
1.520000 -43.811275 -604.602295
2.070000 -43.757992 -603.763733
2.620000 -43.714787 -603.155212
3.170000 -43.659382 -602.407166
3.720000 -43.621407 -601.858398
4.270000 -43.566875 -601.120361
4.820000 -43.530643 -600.591492
5.360000 -43.474865 -599.953918
5.910000 -43.448219 -599.534668
6.450000 -43.411991 -599.005798
7.000000 -43.387962 -598.616394
7.540000 -43.346127 -598.138245
8.090000 -43.324715 -597.778748
8.630000 -43.288109 -597.360352
9.170000 -43.264080 -596.970947
9.710000 -43.240921 -596.591492
10.260000 -43.213032 -596.272705
10.800000 -43.182030 -595.803650
11.340000 -43.158497 -595.534668
11.880000 -43.137955 -595.185120
12.420000 -43.116165 -594.936096
12.960000 -43.098240 -594.616455
13.500000 -43.078194 -594.387329
14.040000 -43.052048 -594.088440
14.580000 -43.036732 -593.798706
15.110000 -43.006229 -593.450012
15.650000 -43.003117 -593.299744
16.190001 -42.983944 -593.080566
16.730000 -42.963898 -592.851440
17.270000 -42.953812 -592.621460
17.809999 -42.932896 -592.382324
18.340000 -42.906750 -592.083496
18.879999 -42.902767 -591.923218
19.420000 -42.887077 -591.743896
19.950001 -42.872261 -591.574585
20.490000 -42.864792 -591.374451
21.030001 -42.847363 -591.175232
21.570000 -42.845619 -591.155273
22.110001 -42.833416 -591.015808
22.639999 -42.820343 -590.866394
23.180000 -42.817230 -590.716064
23.719999 -42.808517 -590.616455
24.250000 -42.795444 -590.467041
24.790001 -42.785854 -590.357483
25.330000 -42.782368 -590.317627
25.870001 -42.780624 -590.297668
26.410000 -42.767551 -590.148254
26.950001 -42.762325 -590.088501
27.490000 -42.767929 -590.037781
28.030001 -42.764442 -589.997925
28.570000 -42.761826 -589.968079
29.110001 -42.754852 -589.888367
29.650000 -42.755726 -589.898315
30.190001 -42.757469 -589.918274
30.730000 -42.753113 -589.868469
31.270000 -42.748753 -589.818665
31.809999 -42.747009 -589.798706
32.349998 -42.747009 -589.798706
32.900002 -42.753113 -589.868469
33.439999 -42.750496 -589.838562
33.980000 -42.753113 -589.868469
34.520000 -42.750496 -589.838562
35.070000 -42.756596 -589.908325
35.610001 -42.757469 -589.918274
36.150002 -42.755726 -589.898315
36.689999 -42.758343 -589.928223
37.240002 -42.760082 -589.948120
37.779999 -42.763569 -589.987976
38.320000 -42.766186 -590.017883
38.869999 -42.758839 -590.048645
39.410000 -42.764069 -590.108398
39.959999 -42.765808 -590.128357
40.509998 -42.775398 -590.237915
41.049999 -42.772781 -590.208008
41.590000 -42.774525 -590.227966
42.139999 -42.778885 -590.277771
42.689999 -42.791084 -590.417236
43.240002 -42.798058 -590.496948
43.779999 -42.798058 -590.496948
44.340000 -42.812000 -590.656311
44.889999 -42.814243 -590.796631
45.439999 -42.819473 -590.856445
45.990002 -42.833416 -591.015808
46.540001 -42.837772 -591.065613
47.090000 -42.845619 -591.155273
47.639999 -42.852592 -591.234985
48.189999 -42.855701 -591.385254
48.740002 -42.861801 -591.455017
49.299999 -42.873135 -591.584534
49.860001 -42.891438 -591.793701
50.410000 -42.898407 -591.873413
50.959999 -42.897163 -591.973877
51.520000 -42.908493 -592.103394
52.070000 -42.920692 -592.242859
52.630001 -42.931152 -592.362427
53.180000 -42.940739 -592.471985
53.730000 -42.945969 -592.531799
54.290001 -42.952568 -592.721924
54.849998 -42.958668 -592.791687
55.400002 -42.966511 -592.881287
55.959999 -42.977840 -593.010803
56.509998 -42.983944 -593.080566
57.060001 -42.993530 -593.190125
57.619999 -42.993156 -593.300598
58.180000 -43.004486 -593.430115
58.740002 -43.018429 -593.589478
59.290001 -43.024532 -593.659241
59.849998 -43.033249 -593.758850
60.400002 -43.039349 -593.828552
60.959999 -43.037231 -593.919128
61.500000 -43.039845 -593.948975
62.070000 -43.052048 -594.088440
62.619999 -43.062504 -594.208008
63.180000 -43.072964 -594.327515
63.740002 -43.079937 -594.407227
64.300003 -43.082176 -594.547546
64.860001 -43.090019 -594.637207
65.419998 -43.101349 -594.766724
65.970001 -43.110065 -594.866333
66.540001 -43.124012 -595.025757
67.099998 -43.134472 -595.145264
67.660004 -43.130608 -595.215881
68.220001 -43.144554 -595.375305
68.779999 -43.151527 -595.454956
69.330002 -43.156754 -595.514771
69.889999 -43.167213 -595.634277
70.459999 -43.178543 -595.763794
71.010002 -43.182903 -595.813599
71.570000 -43.184269 -595.943970
72.139999 -43.200829 -596.133240
72.690002 -43.201702 -596.143250
73.260002 -43.214775 -596.292664
73.820000 -43.221748 -596.372375
74.379997 -43.221371 -596.482788
74.940002 -43.230087 -596.582397
75.500000 -43.233574 -596.622253
76.070000 -43.249264 -596.801575
76.620003 -43.251003 -596.821533
77.169998 -43.254494 -596.861389
77.739998 -43.269306 -597.030701
78.300003 -43.273666 -597.080505
78.870003 -43.275906 -597.220886
79.419998 -43.282005 -597.290588
79.989998 -43.289852 -597.380249
80.529999 -43.288979 -597.370300
81.099998 -43.297695 -597.469910
81.660004 -43.305538 -597.559570
82.220001 -43.310768 -597.619324
82.779999 -43.319485 -597.718933
83.330002 -43.313007 -597.759705
83.900002 -43.321724 -597.859314
84.449997 -43.324337 -597.889160
85.010002 -43.327824 -597.929016
85.550003 -43.322594 -597.869263
86.110001 -43.326954 -597.919067
86.650002 -43.320850 -597.849365
87.199997 -43.322594 -597.869263
87.730003 -43.313877 -597.769653
88.279999 -43.318611 -597.708984
88.809998 -43.309895 -597.609375
89.349998 -43.303795 -597.539673
89.889999 -43.299438 -597.489807
90.419998 -43.288979 -597.370300
90.959999 -43.285492 -597.330444
91.500000 -43.277649 -597.240784
92.040001 -43.273293 -597.190979
92.580002 -43.267189 -597.121216
93.139999 -43.273293 -597.190979
93.699997 -43.282005 -597.290588
94.269997 -43.291595 -597.400146
94.830002 -43.299438 -597.489807
95.400002 -43.308151 -597.589478
95.980003 -43.311264 -597.739746
96.570000 -43.333923 -597.998779
97.139999 -43.347000 -598.148193
97.730003 -43.357082 -598.378174
98.320000 -43.377998 -598.617249
98.910004 -43.397175 -598.836426
99.500000 -43.411617 -599.116272
100.110001 -43.438633 -599.425049
100.690002 -43.455193 -599.614319
101.279999 -43.461792 -599.804504
101.860001 -43.479221 -600.003723
102.449997 -43.499268 -600.232849
103.059998 -43.514580 -600.522644
103.639999 -43.530270 -600.701965
104.209999 -43.537243 -600.781616
104.800003 -43.548199 -601.021606
105.400002 -43.572601 -601.300537
105.989998 -43.588287 -601.479858
106.620003 -43.614933 -601.899109
107.269997 -43.652905 -602.447876
107.970001 -43.710926 -603.225769
108.769997 -43.812149 -604.612244
109.669998 -43.941757 -606.437927
110.300003 -43.968403 -606.857178
110.870003 -43.971886 -606.897034
111.430000 -43.975372 -606.936890
111.989998 -43.976246 -606.946838
112.570000 -43.983215 -607.026550
113.129997 -43.984089 -607.036499
113.709999 -43.994549 -607.156006
114.290001 -44.005878 -607.285522
114.889999 -44.014217 -607.495605
115.489998 -44.031651 -607.694824
116.080002 -44.044724 -607.844299
116.669998 -44.061283 -608.033569
117.290001 -44.078339 -608.343262
117.900002 -44.102741 -608.622192
118.489998 -44.115814 -608.771606
119.099998 -44.125027 -608.991638
-49.959999 -44.208160 -602.369202
-49.389999 -44.187244 -602.130127
-48.810001 -44.176289 -601.890137
-48.240002 -44.152756 -601.621155
-47.680000 -44.146656 -601.551453
-47.130001 -44.145782 -601.541504
-46.580002 -44.157986 -601.680969
-46.040001 -44.170189 -601.820435
-45.520000 -44.192474 -602.189880
-45.000000 -44.235180 -602.678040
-44.540001 -44.320713 -603.885132
-44.040001 -44.373505 -604.603271
-43.500000 -44.393173 -604.942871
-42.950001 -44.394047 -604.952820
-42.400002 -44.407120 -605.102234
-41.869999 -44.431522 -605.381226
-41.360001 -44.487801 -606.139160
-40.860001 -44.540215 -606.967773
-40.369999 -44.615665 -607.944885
-39.849998 -44.651897 -608.473755
-39.320000 -44.699833 -609.021667
-38.790001 -44.726475 -609.440918
-38.259998 -44.757477 -609.910034
-37.720001 -44.781879 -610.188965
-37.189999 -44.816368 -610.697876
-36.650002 -44.851231 -611.096375
-36.130001 -44.904892 -611.824463
-35.599998 -44.934151 -612.273621
-35.080002 -44.993042 -613.061462
-34.560001 -45.048447 -613.809509
-34.049999 -45.109577 -614.737732
-33.520000 -45.158882 -615.416016
-32.740002 -45.634865 -621.889160
-32.230000 -45.731728 -623.225769
-21.309999 -45.659267 -622.168091
-20.719999 -45.623035 -621.639221
-20.139999 -45.585560 -621.210876
-19.549999 -45.545841 -620.642151
-18.959999 -45.506126 -620.073425
-15.900000 -44.912361 -612.024597
-15.310000 -44.843388 -611.006714
-14.740000 -44.805908 -610.578369
-14.170000 -44.795826 -610.348328
-13.620000 -44.824211 -610.787537
-13.080000 -44.887463 -611.625244
-12.520000 -44.908875 -611.984741
-11.960000 -44.921078 -612.124207
-11.410000 -44.937637 -612.313477
-10.850000 -44.966022 -612.752686
-10.300000 -45.012215 -613.280640
-9.740000 -45.056290 -613.899170
-9.180000 -45.079449 -614.278564
-8.620000 -45.087292 -614.368225
-8.060000 -45.082932 -614.318420
-7.490000 -45.089905 -614.398132
-6.930000 -45.092522 -614.428040
-6.360000 -45.096008 -614.467834
-5.800000 -45.101234 -614.527649
-5.230000 -45.088161 -614.378174
-4.670000 -45.058033 -613.919067
-4.100000 -45.004868 -613.311401
-3.530000 -44.955940 -612.522644
-2.960000 -44.877872 -611.515625
-2.390000 -44.780136 -610.169006
-1.830000 -44.713402 -609.291504
-1.270000 -44.643555 -608.263672
-0.710000 -44.563747 -607.236755
-0.150000 -44.492653 -606.309387
0.410000 -44.441608 -605.611206
0.960000 -44.383961 -604.722839
1.510000 -44.329430 -603.984802
2.070000 -44.274895 -603.246704
2.620000 -44.224720 -602.558472
3.170000 -44.181519 -601.949951
3.720000 -44.136570 -601.321472
4.260000 -44.089008 -600.663086
4.810000 -44.041946 -600.125122
5.360000 -44.003101 -599.566406
5.900000 -43.977329 -599.157104
6.450000 -43.936367 -598.688904
7.000000 -43.914082 -598.319397
7.540000 -43.883949 -597.860291
8.080000 -43.852573 -597.501648
8.630000 -43.822445 -597.042542
9.170000 -43.791069 -596.683899
9.710000 -43.763554 -596.254700
10.250000 -43.735664 -595.935913
10.790000 -43.716866 -595.606262
11.340000 -43.699432 -595.407043
11.870000 -43.667561 -594.927979
12.410000 -43.643158 -594.649048
12.960000 -43.624855 -594.439880
13.500000 -43.610413 -594.160034
14.030000 -43.583393 -593.851257
14.570000 -43.570694 -593.591370
15.110000 -43.546291 -593.312439
15.650000 -43.527988 -593.103210
16.190001 -43.515289 -592.843323
16.730000 -43.506577 -592.743713
17.270000 -43.486530 -592.514587
17.799999 -43.473831 -592.254700
18.340000 -43.450298 -591.985718
18.879999 -43.433739 -591.796448
19.410000 -43.418922 -591.627136
19.950001 -43.416683 -591.486755
20.490000 -43.397507 -591.267639
21.030001 -43.389664 -591.177979
21.570000 -43.376591 -591.028503
22.100000 -43.364388 -590.889038
22.639999 -43.367378 -590.808472
23.180000 -43.353436 -590.649109
23.719999 -43.342976 -590.529541
24.260000 -43.337746 -590.469788
24.790001 -43.322929 -590.300415
25.330000 -43.315956 -590.220764
25.870001 -43.312469 -590.180908
26.410000 -43.311600 -590.170898
26.950001 -43.309361 -590.030579
27.490000 -43.311104 -590.050537
28.030001 -43.303257 -589.960876
28.570000 -43.298031 -589.901062
29.110001 -43.292801 -589.841309
29.650000 -43.294544 -589.861206
30.190001 -43.288441 -589.791504
30.730000 -43.291058 -589.821411
31.270000 -43.281467 -589.711792
31.809999 -43.290184 -589.811401
32.349998 -43.284954 -589.751648
32.889999 -43.286697 -589.771545
33.430000 -43.284954 -589.751648
33.980000 -43.289314 -589.801453
34.520000 -43.290184 -589.811401
35.070000 -43.294544 -589.861206
35.610001 -43.294544 -589.861206
36.150002 -43.293671 -589.851257
36.689999 -43.294544 -589.861206
37.240002 -43.300644 -589.930969
37.779999 -43.303257 -589.960876
38.330002 -43.306744 -590.000671
38.869999 -43.310230 -590.040527
39.410000 -43.311104 -590.050537
39.959999 -43.306370 -590.111145
40.500000 -43.309856 -590.151001
41.049999 -43.314213 -590.200806
41.590000 -43.312469 -590.180908
42.139999 -43.318569 -590.250610
42.689999 -43.327286 -590.350220
43.240002 -43.335133 -590.439880
43.779999 -43.337746 -590.469788
44.330002 -43.348206 -590.589355
44.880001 -43.352562 -590.639160
45.439999 -43.358288 -590.819336
45.980000 -43.364388 -590.889038
46.540001 -43.373104 -590.988647
47.090000 -43.384434 -591.118164
47.639999 -43.393150 -591.217773
48.189999 -43.402737 -591.327393
48.750000 -43.413197 -591.446899
49.290001 -43.414066 -591.456909
49.860001 -43.430252 -591.756592
50.410000 -43.433739 -591.796448
50.959999 -43.444199 -591.916016
51.520000 -43.456398 -592.055481
52.070000 -43.457767 -592.185852
52.630001 -43.466484 -592.285461
53.180000 -43.479557 -592.434875
53.730000 -43.484787 -592.494690
54.290001 -43.497860 -592.644104
54.849998 -43.507446 -592.753662
55.400002 -43.509686 -592.894043
55.950001 -43.512302 -592.923889
56.509998 -43.521015 -593.023499
57.070000 -43.536705 -593.202820
57.619999 -43.541061 -593.252625
58.180000 -43.553265 -593.392090
58.740002 -43.558121 -593.562317
59.290001 -43.563347 -593.622131
59.840000 -43.568577 -593.681885
60.400002 -43.572933 -593.731689
60.950001 -43.584267 -593.861206
61.509998 -43.591236 -593.940918
62.070000 -43.599953 -594.040527
62.619999 -43.607800 -594.130188
63.180000 -43.608295 -594.250610
63.740002 -43.617882 -594.360168
64.290001 -43.623981 -594.429932
64.849998 -43.634441 -594.549438
65.410004 -43.647514 -594.698853
65.970001 -43.653614 -594.768616
66.529999 -43.662331 -594.868225
67.089996 -43.661957 -594.978699
67.650002 -43.671543 -595.088257
68.209999 -43.682873 -595.217773
68.760002 -43.689846 -595.297485
69.320000 -43.696819 -595.377136
69.889999 -43.714249 -595.576416
70.440002 -43.707775 -595.617126
71.000000 -43.712132 -595.666931
71.550003 -43.718231 -595.736633
72.120003 -43.730434 -595.876160
72.680000 -43.736534 -595.945862
73.239998 -43.746120 -596.055420
73.800003 -43.758324 -596.194885
74.360001 -43.763554 -596.254700
74.919998 -43.760563 -596.335266
75.489998 -43.774509 -596.494629
76.040001 -43.779739 -596.554443
76.599998 -43.788452 -596.654053
77.160004 -43.795425 -596.733704
77.720001 -43.801525 -596.803467
78.279999 -43.806755 -596.863220
78.839996 -43.806381 -596.973694
79.400002 -43.814224 -597.063354
79.949997 -43.814224 -597.063354
80.519997 -43.827297 -597.212769
81.080002 -43.833401 -597.282532
81.639999 -43.842987 -597.392090
82.190002 -43.844730 -597.411987
82.760002 -43.853447 -597.511658
83.320000 -43.863903 -597.631165
83.879997 -43.857430 -597.671875
84.440002 -43.865273 -597.761536
85.010002 -43.874859 -597.871155
85.550003 -43.870502 -597.821350
86.099998 -43.867886 -597.791443
86.639999 -43.863529 -597.741638
87.190002 -43.867016 -597.781494
87.730003 -43.860043 -597.701782
88.290001 -43.866142 -597.771545
88.820000 -43.853069 -597.622070
89.349998 -43.854317 -597.521606
89.879997 -43.843861 -597.402039
90.430000 -43.842113 -597.382141
90.970001 -43.836887 -597.322327
91.510002 -43.832527 -597.272522
92.050003 -43.825558 -597.192871
92.589996 -43.823814 -597.172913
93.150002 -43.826427 -597.202820
93.709999 -43.833401 -597.282532
94.269997 -43.839500 -597.352234
94.839996 -43.849960 -597.471802
95.419998 -43.853943 -597.632019
95.980003 -43.863529 -597.741638
96.570000 -43.881832 -597.950806
97.150002 -43.901009 -598.169983
97.739998 -43.909348 -598.380066
98.320000 -43.926777 -598.579285
98.919998 -43.951183 -598.858215
99.500000 -43.956036 -599.028442
100.089996 -43.978699 -599.287476
100.669998 -43.994385 -599.466797
101.260002 -44.010944 -599.656067
101.860001 -44.023643 -599.915955
102.430000 -44.037586 -600.075317
103.040001 -44.052902 -600.365112
103.629997 -44.072948 -600.594238
104.209999 -44.085148 -600.733704
104.809998 -44.109554 -601.012634
105.410004 -44.121380 -601.262573
106.040001 -44.158855 -601.690918
106.650002 -44.180271 -602.050415
107.290001 -44.211273 -602.519531
108.010002 -44.279751 -603.416931
108.870003 -44.406246 -605.092285
109.709999 -44.518803 -606.608276
110.300003 -44.526272 -606.808350
110.860001 -44.526272 -606.808350
111.419998 -44.528885 -606.838257
111.989998 -44.534115 -606.898010
112.540001 -44.531498 -606.868164
113.099998 -44.532372 -606.878113
113.699997 -44.548931 -607.067383
114.279999 -44.560261 -607.196899
114.870003 -44.562500 -607.337219
115.459999 -44.579060 -607.526489
116.070000 -44.600849 -607.775574
116.669998 -44.619152 -607.984741
117.290001 -44.633595 -608.264526
117.889999 -44.653641 -608.493652
118.489998 -44.672813 -608.712830
119.070000 -44.670696 -608.803345
-49.900002 -44.703278 -601.603149
-49.330002 -44.695808 -601.403015
-48.759998 -44.672276 -601.134033
-48.189999 -44.660946 -601.004517
-47.630001 -44.652229 -600.904907
-47.080002 -44.652229 -600.904907
-46.540001 -44.664433 -601.044373
-46.000000 -44.678375 -601.203796
-45.480000 -44.711121 -601.692810
-44.980000 -44.759556 -602.361084
-44.509998 -44.843719 -603.437866
-43.990002 -44.875591 -603.916931
-43.450001 -44.895638 -604.146057
-42.900002 -44.899998 -604.195862
-42.360001 -44.915684 -604.375183
-41.820000 -44.926640 -604.615112
-41.320000 -44.995991 -605.522522
-40.840000 -45.076672 -606.559448
-40.349998 -45.143028 -607.547424
-39.830002 -45.195324 -608.145142
-39.310001 -45.233295 -608.693909
-38.770000 -45.259068 -609.103210
-38.240002 -45.296547 -609.531616
-37.709999 -45.321445 -609.930969
-37.180000 -45.360291 -610.489685
-36.650002 -45.402126 -610.967834
-36.110001 -45.433998 -611.446899
-35.580002 -45.478451 -611.954956
-35.049999 -45.519035 -612.533630
-34.529999 -45.570957 -613.241821
-34.000000 -45.612415 -613.830444
-33.470001 -45.648647 -614.359253
-33.000000 -45.792576 -616.233887
-32.720001 -46.193481 -621.619446
-32.189999 -46.251503 -622.397339
-31.670000 -46.310017 -623.295654
-22.490000 -46.285118 -622.896301
-21.889999 -46.229713 -622.148254
-21.299999 -46.196098 -621.649292
-20.709999 -46.157749 -621.210999
-20.120001 -46.126747 -620.741882
-19.530001 -46.085289 -620.153259
-16.459999 -45.474964 -611.915100
-15.870000 -45.403870 -610.987793
-15.300000 -45.366394 -610.559448
-14.730000 -45.352821 -610.289551
-14.170000 -45.363281 -610.409119
-13.640000 -45.427898 -611.377197
-13.080000 -45.459274 -611.735779
-12.520000 -45.478451 -611.954956
-11.960000 -45.483677 -612.014709
-11.410000 -45.501606 -612.334412
-10.850000 -45.536095 -612.843323
-10.300000 -45.586643 -613.421143
-9.740000 -45.624619 -613.969910
-9.180000 -45.641178 -614.159180
-8.620000 -45.642921 -614.179077
-8.060000 -45.646404 -614.218933
-7.490000 -45.644665 -614.199036
-6.930000 -45.646404 -614.218933
-6.360000 -45.641674 -614.279602
-5.800000 -45.641178 -614.159180
-5.230000 -45.618519 -613.900146
-4.660000 -45.577927 -613.321472
-4.090000 -45.520779 -612.553528
-3.520000 -45.440971 -611.526611
-2.960000 -45.372494 -610.629150
-2.390000 -45.280857 -609.352295
-1.830000 -45.208893 -608.414978
-1.270000 -45.137302 -607.367249
-0.710000 -45.088871 -606.698914
-0.150000 -45.014294 -605.731750
0.410000 -44.958889 -604.983704
0.960000 -44.892155 -604.106201
1.510000 -44.845463 -603.457825
2.060000 -44.786572 -602.669922
2.620000 -44.743370 -602.061401
3.170000 -44.702782 -601.482727
3.710000 -44.646999 -600.845154
4.260000 -44.610771 -600.316284
4.810000 -44.575413 -599.797424
5.360000 -44.536568 -599.238647
5.900000 -44.504318 -598.870056
6.450000 -44.472446 -598.391052
6.990000 -44.439327 -598.012451
7.540000 -44.415298 -597.623108
8.080000 -44.383923 -597.264465
8.620000 -44.360764 -596.885010
9.170000 -44.320675 -596.426758
9.710000 -44.301003 -596.087219
10.250000 -44.275726 -595.798279
10.790000 -44.254314 -595.438782
11.330000 -44.230782 -595.169861
11.870000 -44.195919 -594.771362
12.410000 -44.185833 -594.541382
12.950000 -44.161430 -594.262451
13.490000 -44.140514 -594.023315
14.030000 -44.124329 -593.723633
14.570000 -44.105152 -593.504456
15.110000 -44.086353 -593.174805
15.650000 -44.070667 -592.995544
16.190001 -44.050621 -592.766418
16.719999 -44.033192 -592.567139
17.260000 -44.022236 -592.327209
17.799999 -44.007420 -592.157837
18.340000 -43.988243 -591.938660
18.870001 -43.977287 -591.698730
19.410000 -43.962471 -591.529358
19.950001 -43.950272 -591.389893
20.490000 -43.937199 -591.240479
21.030001 -43.921509 -591.061157
21.559999 -43.921883 -590.950684
22.100000 -43.914040 -590.861023
22.639999 -43.903580 -590.741516
23.180000 -43.893124 -590.621948
23.719999 -43.880920 -590.482483
24.260000 -43.875690 -590.422729
24.790001 -43.860874 -590.253357
25.330000 -43.867352 -590.212646
25.870001 -43.862122 -590.152893
26.410000 -43.858635 -590.113037
26.950001 -43.849049 -590.003418
27.490000 -43.849049 -590.003418
28.030001 -43.845562 -589.963623
28.570000 -43.842075 -589.923767
29.110001 -43.833359 -589.824158
29.650000 -43.828129 -589.764343
30.190001 -43.830746 -589.794250
30.730000 -43.831615 -589.804199
31.270000 -43.833359 -589.824158
31.809999 -43.830746 -589.794250
32.349998 -43.827259 -589.754395
32.900002 -43.832489 -589.814148
33.439999 -43.833359 -589.824158
33.980000 -43.832489 -589.814148
34.529999 -43.835976 -589.854004
35.070000 -43.835102 -589.844055
35.610001 -43.837715 -589.873962
36.150002 -43.836845 -589.863953
36.700001 -43.837715 -589.873962
37.240002 -43.837715 -589.873962
37.779999 -43.843819 -589.943665
38.330002 -43.849918 -590.013428
38.869999 -43.844688 -589.953613
39.419998 -43.855148 -590.073181
39.959999 -43.857761 -590.103088
40.509998 -43.862122 -590.152893
41.049999 -43.862991 -590.162842
41.599998 -43.856518 -590.203552
42.139999 -43.863487 -590.283264
42.689999 -43.872204 -590.382874
43.240002 -43.878304 -590.452576
43.790001 -43.883533 -590.512390
44.330002 -43.887020 -590.552246
44.880001 -43.893124 -590.621948
45.439999 -43.907936 -590.791321
45.990002 -43.916653 -590.890930
46.540001 -43.913666 -590.971497
47.090000 -43.919765 -591.041260
47.639999 -43.931095 -591.170715
48.200001 -43.949398 -591.379944
48.750000 -43.956371 -591.459656
49.299999 -43.963345 -591.539307
49.849998 -43.968575 -591.599121
50.410000 -43.971684 -591.749390
50.959999 -43.984756 -591.898804
51.520000 -43.997829 -592.048279
52.080002 -44.008289 -592.167786
52.630001 -44.018749 -592.287354
53.189999 -44.021858 -592.437622
53.740002 -44.027962 -592.507385
54.290001 -44.036674 -592.606995
54.849998 -44.050621 -592.766418
55.410000 -44.060207 -592.875977
55.959999 -44.070667 -592.995544
56.520000 -44.081997 -593.125000
57.080002 -44.082493 -593.245422
57.630001 -44.085979 -593.285278
58.189999 -44.098183 -593.424744
58.740002 -44.104282 -593.494507
59.299999 -44.116486 -593.633972
59.849998 -44.121716 -593.693726
60.410000 -44.129559 -593.783386
60.959999 -44.135658 -593.853088
61.520000 -44.137028 -593.983521
62.070000 -44.144871 -594.073120
62.630001 -44.151844 -594.152832
63.189999 -44.163174 -594.282349
63.740002 -44.166660 -594.322205
64.290001 -44.174503 -594.411865
64.849998 -44.184963 -594.531372
65.400002 -44.185833 -594.541382
65.959999 -44.187202 -594.671753
66.529999 -44.202892 -594.851074
67.080002 -44.204636 -594.870972
67.639999 -44.216835 -595.010437
68.199997 -44.227295 -595.130005
68.769997 -44.238625 -595.259521
69.320000 -44.245598 -595.339172
69.879997 -44.239994 -595.389893
70.440002 -44.252193 -595.529358
71.000000 -44.260040 -595.619019
71.550003 -44.265266 -595.678772
72.110001 -44.272240 -595.758484
72.669998 -44.280083 -595.848145
73.230003 -44.287056 -595.927795
73.800003 -44.292782 -596.107971
74.349998 -44.293655 -596.117981
74.910004 -44.304111 -596.237488
75.470001 -44.311958 -596.327148
76.040001 -44.324158 -596.466614
76.589996 -44.329388 -596.526428
77.150002 -44.334618 -596.586182
77.709999 -44.340717 -596.655884
78.269997 -44.348564 -596.745544
78.830002 -44.348186 -596.856018
79.389999 -44.355160 -596.935730
79.949997 -44.363876 -597.035339
80.510002 -44.368233 -597.085144
81.070000 -44.376949 -597.184753
81.639999 -44.386536 -597.294373
82.199997 -44.393509 -597.374023
82.760002 -44.399609 -597.443787
83.330002 -44.403591 -597.604065
83.870003 -44.400978 -597.574158
84.430000 -44.407951 -597.653870
85.000000 -44.417538 -597.763428
85.540001 -44.410564 -597.683716
86.080002 -44.409695 -597.673767
86.629997 -44.409695 -597.673767
87.190002 -44.414051 -597.723572
87.720001 -44.399235 -597.554199
88.269997 -44.404465 -597.614014
88.839996 -44.412308 -597.703674
89.370003 -44.400978 -597.574158
89.919998 -44.400978 -597.574158
90.440002 -44.395252 -597.393982
90.959999 -44.380436 -597.224609
91.510002 -44.379562 -597.214661
92.050003 -44.375206 -597.164856
92.610001 -44.383049 -597.254517
93.160004 -44.380436 -597.224609
93.720001 -44.386536 -597.294373
94.290001 -44.399609 -597.443787
94.849998 -44.400482 -597.453735
95.419998 -44.401852 -597.584106
96.000000 -44.418407 -597.773376
96.570000 -44.429741 -597.902893
97.160004 -44.449783 -598.132019
97.739998 -44.459000 -598.352051
98.309998 -44.470329 -598.481567
98.900002 -44.490376 -598.710693
99.489998 -44.511292 -598.949768
100.080002 -44.521374 -599.179749
100.660004 -44.534447 -599.329224
101.260002 -44.561466 -599.638000
101.849998 -44.569805 -599.848083
102.440002 -44.588112 -600.057312
103.019997 -44.602924 -600.226624
103.610001 -44.613010 -600.456665
104.209999 -44.634800 -600.705688
104.809998 -44.657459 -600.964722
105.419998 -44.676258 -601.294312
106.029999 -44.705021 -601.623047
106.680000 -44.741253 -602.151917
107.360001 -44.794041 -602.870056
108.089996 -44.866005 -603.807312
108.989998 -45.000843 -605.692749
109.730003 -45.078037 -606.689819
110.300003 -45.083267 -606.749573
110.860001 -45.083267 -606.749573
111.410004 -45.082397 -606.739624
111.980003 -45.085880 -606.779480
112.540001 -45.087624 -606.799438
113.120003 -45.098957 -606.928894
113.699997 -45.105927 -607.008606
114.269997 -45.112900 -607.088318
114.889999 -45.131699 -607.417908
115.470001 -45.137802 -607.487671
116.050003 -45.150875 -607.637085
116.650002 -45.169178 -607.846313
117.250000 -45.177517 -608.056335
117.870003 -45.201050 -608.325317
118.430000 -45.205406 -608.375122
-50.430000 -45.236744 -601.275391
-49.849998 -45.205368 -600.916748
-49.279999 -45.203999 -600.786377
-48.709999 -45.182209 -600.537354
-48.150002 -45.174366 -600.447693
-47.590000 -45.159550 -600.278320
-47.029999 -45.160419 -600.288269
-46.500000 -45.183083 -600.547302
-45.970001 -45.202255 -600.766479
-45.450001 -45.230640 -601.205688
-44.959999 -45.295635 -602.063232
-44.459999 -45.346680 -602.761475
-43.930000 -45.374573 -603.080261
-43.380001 -45.383286 -603.179871
-42.830002 -45.384159 -603.189819
-42.279999 -45.383781 -603.300293
-41.779999 -45.439186 -604.048279
-41.290001 -45.505924 -604.925842
-40.810001 -45.599678 -606.112183
-40.320000 -45.675999 -607.099243
-39.799999 -45.716587 -607.677917
-39.270000 -45.747589 -608.147034
-38.750000 -45.799011 -608.734802
-38.230000 -45.836113 -609.273560
-37.700001 -45.865372 -609.722778
-37.160000 -45.905460 -610.180969
-36.630001 -45.931232 -610.590332
-36.099998 -45.978298 -611.128235
-35.560001 -45.999714 -611.487732
-35.029999 -46.044163 -611.995789
-34.480000 -46.061218 -612.305481
-33.950001 -46.107906 -612.953918
-33.430000 -46.167171 -613.631348
-32.919998 -46.243992 -614.738831
-32.700001 -46.713379 -621.021851
-32.180000 -46.799286 -622.118530
-31.650000 -46.849464 -622.806763
-31.110001 -46.903126 -623.534851
-23.629999 -46.856434 -622.886475
-23.040001 -46.818462 -622.337708
-22.450001 -46.787086 -621.979065
-21.860001 -46.750854 -621.450195
-21.280001 -46.715992 -621.051697
-20.700001 -46.697193 -620.722107
-20.110001 -46.654861 -620.123535
-17.020000 -46.015400 -611.667053
-16.440001 -45.981785 -611.168091
-15.860000 -45.927750 -610.550476
-15.300000 -45.919407 -610.340393
-14.740000 -45.928993 -610.449951
-14.190000 -45.961739 -610.938965
-13.640000 -46.009300 -611.597351
-13.080000 -46.029346 -611.826477
-12.520000 -46.031960 -611.856323
-11.960000 -46.048519 -612.045654
-11.410000 -46.066448 -612.365295
-10.860000 -46.116127 -612.933105
-10.300000 -46.152355 -613.461975
-9.740000 -46.179871 -613.891174
-9.180000 -46.192074 -614.030640
-8.620000 -46.183357 -613.931030
-8.050000 -46.181614 -613.911133
-7.490000 -46.183357 -613.931030
-6.920000 -46.189461 -614.000793
-6.360000 -46.182487 -613.921082
-5.790000 -46.168045 -613.641296
-5.230000 -46.137539 -613.292603
-4.660000 -46.071678 -612.425049
-4.090000 -46.019756 -611.716858
-3.520000 -45.940823 -610.699890
-2.950000 -45.877075 -609.741821
-2.390000 -45.771118 -608.416016
-1.830000 -45.709614 -607.598267
-1.270000 -45.638523 -606.670898
-0.710000 -45.575272 -605.833252
-0.150000 -45.516380 -605.045349
0.400000 -45.454006 -604.217651
0.960000 -45.409931 -603.599121
1.510000 -45.360626 -602.920837
2.060000 -45.301735 -602.132996
2.610000 -45.266376 -601.614075
3.160000 -45.208855 -600.956604
3.710000 -45.173492 -600.437744
4.260000 -45.135521 -599.888916
4.810000 -45.091072 -599.380859
5.350000 -45.057453 -598.881897
5.900000 -45.025208 -598.513306
6.440000 -44.996822 -598.074097
6.990000 -44.964573 -597.705505
7.530000 -44.937057 -597.276306
8.080000 -44.910912 -596.977417
8.620000 -44.882526 -596.538208
9.160000 -44.858994 -596.269287
9.700000 -44.833221 -595.859924
10.250000 -44.807076 -595.561096
10.790000 -44.783047 -595.171692
11.330000 -44.762127 -594.932617
11.870000 -44.731625 -594.583984
12.410000 -44.725025 -594.393799
12.950000 -44.698009 -594.084961
13.490000 -44.670116 -593.766174
14.030000 -44.663521 -593.576050
14.570000 -44.639988 -593.307068
15.110000 -44.624298 -593.127747
15.650000 -44.605995 -592.918579
16.190001 -44.596786 -592.698547
16.719999 -44.575867 -592.459473
17.260000 -44.554077 -592.210388
17.799999 -44.542747 -592.080872
18.340000 -44.532665 -591.850891
18.870001 -44.516975 -591.671570
19.410000 -44.503902 -591.522156
19.950001 -44.490829 -591.372742
20.490000 -44.479874 -591.132751
21.020000 -44.465057 -590.963379
21.559999 -44.457214 -590.873779
22.100000 -44.445885 -590.744263
22.639999 -44.438911 -590.664551
23.180000 -44.425838 -590.515137
23.719999 -44.418865 -590.435425
24.250000 -44.417496 -590.305054
24.790001 -44.411396 -590.235291
25.330000 -44.401810 -590.125732
25.870001 -44.401810 -590.125732
26.410000 -44.393967 -590.036072
26.950001 -44.383507 -589.916504
27.490000 -44.385250 -589.936462
28.030001 -44.381763 -589.896606
28.570000 -44.375664 -589.826904
29.110001 -44.370434 -589.767090
29.650000 -44.373920 -589.806946
30.190001 -44.367817 -589.737244
30.730000 -44.372177 -589.787048
31.280001 -44.375664 -589.826904
31.820000 -44.372177 -589.787048
32.360001 -44.367817 -589.737244
32.889999 -44.363461 -589.687378
33.439999 -44.368690 -589.747192
33.990002 -44.374790 -589.816895
34.529999 -44.375664 -589.826904
35.070000 -44.373047 -589.796997
35.610001 -44.373047 -589.796997
36.150002 -44.372177 -589.787048
36.700001 -44.383507 -589.916504
37.240002 -44.380894 -589.886658
37.779999 -44.378277 -589.856750
38.330002 -44.386993 -589.956360
38.880001 -44.393093 -590.026123
39.419998 -44.393093 -590.026123
39.959999 -44.397449 -590.075928
40.509998 -44.400066 -590.105835
41.049999 -44.404423 -590.155640
41.599998 -44.404423 -590.155640
42.150002 -44.415752 -590.285095
42.689999 -44.411396 -590.235291
43.240002 -44.416252 -590.405518
43.790001 -44.421478 -590.465332
44.330002 -44.424095 -590.495178
44.880001 -44.431068 -590.574890
45.439999 -44.450241 -590.794067
45.990002 -44.455471 -590.853821
46.540001 -44.461571 -590.923584
47.090000 -44.474644 -591.072998
47.639999 -44.468170 -591.113708
48.189999 -44.478626 -591.233276
48.750000 -44.491699 -591.382690
49.299999 -44.502159 -591.502197
49.860001 -44.514362 -591.641663
50.410000 -44.525692 -591.771179
50.970001 -44.534409 -591.870789
51.529999 -44.542747 -592.080872
52.080002 -44.548847 -592.150635
52.630001 -44.554951 -592.220337
53.189999 -44.569767 -592.389709
53.740002 -44.580227 -592.509277
54.299999 -44.595043 -592.678589
54.860001 -44.592922 -592.769165
55.419998 -44.605995 -592.918579
55.959999 -44.603382 -592.888672
56.529999 -44.626041 -593.147705
57.080002 -44.629528 -593.187561
57.630001 -44.638245 -593.287170
58.189999 -44.648705 -593.406677
58.740002 -44.646587 -593.497253
59.299999 -44.657043 -593.616760
59.849998 -44.663143 -593.686523
60.410000 -44.668373 -593.746277
60.959999 -44.677090 -593.845886
61.520000 -44.685806 -593.945496
62.080002 -44.694523 -594.045166
62.630001 -44.698879 -594.094971
63.180000 -44.708466 -594.204529
63.740002 -44.712826 -594.254333
64.290001 -44.711578 -594.354858
64.849998 -44.718552 -594.434509
65.400002 -44.724651 -594.504272
65.959999 -44.734238 -594.613831
66.529999 -44.749928 -594.793152
67.080002 -44.756027 -594.862915
67.639999 -44.766487 -594.982422
68.199997 -44.770844 -595.032227
68.760002 -44.769596 -595.132751
69.320000 -44.782673 -595.282166
69.870003 -44.787029 -595.331970
70.430000 -44.793129 -595.401733
70.989998 -44.800102 -595.481384
71.540001 -44.806202 -595.551147
72.099998 -44.814049 -595.640808
72.669998 -44.828861 -595.810120
73.230003 -44.824131 -595.870789
73.779999 -44.827618 -595.910645
74.339996 -44.837204 -596.020203
74.900002 -44.845921 -596.119812
75.459999 -44.851151 -596.179626
76.029999 -44.865093 -596.338989
76.580002 -44.870323 -596.398743
77.129997 -44.872936 -596.428650
77.699997 -44.881653 -596.528259
78.260002 -44.883022 -596.658630
78.809998 -44.883022 -596.658630
79.379997 -44.895222 -596.798096
79.930000 -44.900452 -596.857910
80.489998 -44.904812 -596.907715
81.050003 -44.912655 -596.997375
81.620003 -44.923115 -597.116882
82.180000 -44.933571 -597.236450
82.750000 -44.945774 -597.375916
83.309998 -44.941914 -597.446533
83.870003 -44.949757 -597.536194
84.440002 -44.957600 -597.625854
84.980003 -44.954113 -597.585999
85.529999 -44.954987 -597.595947
86.080002 -44.954113 -597.585999
86.629997 -44.954987 -597.595947
87.180000 -44.955856 -597.605896
87.720001 -44.951500 -597.556091
88.269997 -44.948887 -597.526184
88.809998 -44.942783 -597.456482
89.370003 -44.949757 -597.536194
89.900002 -44.940170 -597.426575
90.440002 -44.944901 -597.365967
90.959999 -44.927471 -597.166687
91.519997 -44.932701 -597.226501
92.050003 -44.921371 -597.096985
92.589996 -44.917885 -597.057129
93.150002 -44.925728 -597.146790
93.720001 -44.934444 -597.246399
94.290001 -44.944031 -597.356018
94.849998 -44.943657 -597.466431
95.430000 -44.958473 -597.635803
96.010002 -44.973289 -597.805176
96.580002 -44.985489 -597.944641
97.150002 -44.997692 -598.084106
97.730003 -45.001675 -598.244324
98.320000 -45.020851 -598.463501
98.900002 -45.035667 -598.632874
99.500000 -45.054466 -598.962463
100.089996 -45.071026 -599.151733
100.660004 -45.080612 -599.261353
101.260002 -45.106758 -599.560181
101.849998 -45.115101 -599.770264
102.440002 -45.136890 -600.019287
103.019997 -45.149963 -600.168762
103.639999 -45.182209 -600.537354
104.239998 -45.194908 -600.797241
104.830002 -45.217567 -601.056213
105.440002 -45.234627 -601.365906
106.099998 -45.287788 -601.973572
106.730003 -45.315304 -602.402832
107.430000 -45.375938 -603.210632
108.169998 -45.452263 -604.197754
109.099998 -45.602787 -606.262451
109.720001 -45.630676 -606.581238
110.269997 -45.628063 -606.551392
110.849998 -45.640266 -606.690857
111.410004 -45.638523 -606.670898
111.980003 -45.644623 -606.740662
112.540001 -45.643749 -606.730652
113.110001 -45.649853 -606.800415
113.680000 -45.655952 -606.870117
114.279999 -45.663422 -607.070251
114.870003 -45.677368 -607.229675
115.470001 -45.696541 -607.448792
116.040001 -45.704384 -607.538452
116.639999 -45.723560 -607.757629
117.260002 -45.737129 -608.027466
117.879997 -45.767635 -608.376160
-50.369999 -45.731861 -600.509338
-49.799999 -45.717045 -600.339966
-49.230000 -45.693512 -600.070984
-48.660000 -45.687786 -599.890808
-48.099998 -45.673840 -599.731445
-47.529999 -45.662510 -599.601929
-46.990002 -45.672096 -599.711487
-46.459999 -45.693016 -599.950562
-45.930000 -45.712685 -600.290161
-45.430000 -45.769337 -600.937683
-44.930000 -45.815155 -601.576111
-44.410000 -45.843540 -602.015320
-43.869999 -45.859230 -602.194641
-43.310001 -45.851383 -602.104980
-42.759998 -45.853127 -602.124878
-42.230000 -45.890606 -602.553284
-41.720001 -45.927708 -603.092102
-41.259998 -46.028057 -604.468567
-40.779999 -46.120941 -605.644958
-40.290001 -46.195518 -606.612122
-39.770000 -46.237850 -607.210754
-39.250000 -46.287529 -607.778564
-38.730000 -46.329861 -608.377136
-38.209999 -46.366093 -608.906006
-37.680000 -46.407055 -609.374207
-37.139999 -46.437183 -609.833313
-36.599998 -46.465946 -610.162048
-36.060001 -46.492092 -610.460938
-35.520000 -46.514378 -610.830383
-34.990002 -46.565800 -611.418152
-34.459999 -46.599415 -611.917114
-33.919998 -46.631664 -612.285706
-33.389999 -46.679226 -612.944092
-33.139999 -47.101048 -618.568726
-32.680000 -47.263283 -620.652527
-32.160000 -47.344833 -621.699402
-31.620001 -47.381062 -622.228210
-31.070000 -47.429001 -622.776123
-30.520000 -47.457386 -623.215332
-29.959999 -47.469585 -623.354797
-29.389999 -47.477432 -623.444458
-28.830000 -47.498844 -623.803955
-28.260000 -47.497974 -623.794006
-26.530001 -47.488388 -623.684448
-25.950001 -47.475689 -623.424561
-25.360001 -47.449539 -623.125671
-24.780001 -47.429497 -622.896545
-24.190001 -47.394138 -622.377686
-23.600000 -47.366245 -622.058899
-23.010000 -47.329144 -621.520081
-22.430000 -47.309097 -621.290955
-21.850000 -47.290794 -621.081726
-21.260000 -47.261539 -620.632568
-20.680000 -47.226177 -620.113708
-17.590000 -46.610744 -612.046631
-17.000000 -46.544884 -611.179077
-16.430000 -46.505665 -610.730774
-15.860000 -46.495579 -610.500793
-15.300000 -46.493835 -610.480835
-14.750000 -46.515251 -610.840332
-14.200000 -46.569286 -611.458008
-13.650000 -46.582855 -611.727844
-13.090000 -46.595058 -611.867310
-12.530000 -46.603775 -611.966919
-11.970000 -46.625565 -612.216003
-11.410000 -46.653076 -612.645203
-10.860000 -46.687939 -613.043701
-10.310000 -46.732887 -613.672180
-9.750000 -46.755547 -613.931152
-9.180000 -46.751190 -613.881348
-8.620000 -46.743343 -613.791687
-8.050000 -46.733757 -613.682129
-7.490000 -46.734631 -613.692078
-6.920000 -46.733757 -613.682129
-6.360000 -46.719814 -613.522766
-5.790000 -46.696655 -613.143311
-5.220000 -46.640003 -612.495789
-4.650000 -46.580242 -611.697937
-4.080000 -46.511765 -610.800537
-3.510000 -46.431953 -609.773560
-2.950000 -46.363853 -608.765686
-2.380000 -46.274456 -607.629150
-1.820000 -46.212078 -606.801392
-1.260000 -46.149700 -605.973694
-0.710000 -46.096039 -605.245605
-0.150000 -46.035404 -604.437805
0.400000 -45.975269 -603.750427
0.960000 -45.914635 -602.942627
1.510000 -45.864456 -602.254395
2.060000 -45.829098 -601.735535
2.610000 -45.776806 -601.137817
3.160000 -45.734474 -600.539185
3.710000 -45.698742 -600.130798
4.260000 -45.654667 -599.512268
4.800000 -45.628895 -599.102966
5.350000 -45.586189 -598.614807
5.900000 -45.560417 -598.205505
6.440000 -45.525555 -597.807007
6.990000 -45.505013 -597.457458
7.530000 -45.477119 -597.138672
8.080000 -45.445744 -596.780090
8.620000 -45.418228 -596.350830
9.160000 -45.390339 -596.032043
9.700000 -45.372414 -595.712402
10.250000 -45.348007 -595.433472
10.780000 -45.312275 -595.025024
11.330000 -45.303932 -594.814941
11.870000 -45.271687 -594.446350
12.410000 -45.252514 -594.227173
12.950000 -45.237198 -593.937439
13.490000 -45.219769 -593.738220
14.030000 -45.192749 -593.429382
14.570000 -45.175320 -593.230103
15.110000 -45.164364 -592.990173
15.640000 -45.144318 -592.761047
16.190001 -45.135601 -592.661438
16.719999 -45.112942 -592.402405
17.260000 -45.099373 -592.132568
17.799999 -45.088913 -592.013000
18.340000 -45.066254 -591.754028
18.870001 -45.054920 -591.624512
19.410000 -45.036617 -591.415344
19.950001 -45.036121 -591.294922
20.490000 -45.018692 -591.095642
21.030001 -45.009106 -590.986084
21.559999 -44.997772 -590.856567
22.100000 -44.989929 -590.766907
22.639999 -44.981213 -590.667297
23.180000 -44.974243 -590.587585
23.719999 -44.970261 -590.427368
24.250000 -44.957184 -590.277893
24.790001 -44.951958 -590.218140
25.330000 -44.945854 -590.148376
25.870001 -44.943241 -590.118530
26.410000 -44.935394 -590.028870
26.950001 -44.931038 -589.979065
27.490000 -44.924938 -589.909302
28.030001 -44.916222 -589.809692
28.570000 -44.922321 -589.879456
29.110001 -44.912735 -589.769836
29.650000 -44.912735 -589.769836
30.190001 -44.908379 -589.720032
30.730000 -44.910122 -589.739990
31.270000 -44.909248 -589.729980
31.820000 -44.910992 -589.749939
32.360001 -44.910992 -589.749939
32.900002 -44.913609 -589.779785
33.439999 -44.912735 -589.769836
33.990002 -44.912735 -589.769836
34.529999 -44.914478 -589.789795
35.070000 -44.917965 -589.829651
35.610001 -44.916222 -589.809692
36.150002 -44.915352 -589.799744
36.700001 -44.919708 -589.849548
37.240002 -44.924065 -589.899353
37.790001 -44.925808 -589.919250
38.330002 -44.929295 -589.959106
38.880001 -44.931911 -589.989014
39.419998 -44.934525 -590.018921
39.970001 -44.937138 -590.048767
40.509998 -44.943241 -590.118530
41.060001 -44.948471 -590.178284
41.599998 -44.949341 -590.188232
42.150002 -44.959801 -590.307800
42.700001 -44.965900 -590.377502
43.250000 -44.969387 -590.417358
43.790001 -44.965527 -590.487976
44.340000 -44.974243 -590.587585
44.889999 -44.978600 -590.637390
45.439999 -44.989929 -590.766907
46.000000 -44.999516 -590.876526
46.549999 -45.009106 -590.986084
47.099998 -45.016075 -591.065796
47.650002 -45.024792 -591.165405
48.200001 -45.034378 -591.274963
48.759998 -45.038361 -591.435242
49.310001 -45.043591 -591.494995
49.869999 -45.062767 -591.714172
50.419998 -45.069736 -591.793884
50.980000 -45.082809 -591.943298
51.529999 -45.092400 -592.052856
52.080002 -45.102856 -592.172424
52.630001 -45.098995 -592.243042
53.200001 -45.114685 -592.422363
53.750000 -45.128628 -592.581726
54.310001 -45.137344 -592.681335
54.860001 -45.144318 -592.761047
55.419998 -45.153904 -592.870605
55.970001 -45.164364 -592.990173
56.540001 -45.173576 -593.210205
57.090000 -45.178806 -593.269958
57.639999 -45.186649 -593.359619
58.200001 -45.193623 -593.439331
58.750000 -45.200596 -593.519043
59.310001 -45.212795 -593.658508
59.869999 -45.220638 -593.748169
60.419998 -45.225868 -593.807922
60.970001 -45.232841 -593.887634
61.520000 -45.228981 -593.958252
62.080002 -45.236824 -594.047913
62.639999 -45.246410 -594.157471
63.180000 -45.243797 -594.127563
63.740002 -45.254253 -594.247131
64.300003 -45.268200 -594.406494
64.860001 -45.279530 -594.536011
65.410004 -45.280403 -594.545959
65.970001 -45.287376 -594.625671
66.529999 -45.297832 -594.745239
67.089996 -45.295715 -594.835754
67.639999 -45.303558 -594.925415
68.199997 -45.312275 -595.025024
68.760002 -45.321861 -595.134583
69.320000 -45.326221 -595.184387
69.879997 -45.337551 -595.313904
70.430000 -45.338421 -595.323853
70.980003 -45.345394 -595.403564
71.540001 -45.351494 -595.473328
72.099998 -45.352863 -595.603699
72.650002 -45.355476 -595.633545
73.220001 -45.366810 -595.763062
73.779999 -45.375523 -595.862671
74.330002 -45.379883 -595.912537
74.889999 -45.387726 -596.002197
75.449997 -45.393826 -596.071899
76.010002 -45.402542 -596.171509
76.570000 -45.409515 -596.251221
77.139999 -45.421715 -596.390686
77.699997 -45.421341 -596.501160
78.250000 -45.425697 -596.550964
78.809998 -45.432671 -596.630615
79.379997 -45.445744 -596.780090
79.930000 -45.448360 -596.809937
80.489998 -45.451847 -596.849792
81.050003 -45.457947 -596.919556
81.610001 -45.465790 -597.009216
82.169998 -45.476250 -597.128723
82.739998 -45.483223 -597.208435
83.300003 -45.484589 -597.338806
83.870003 -45.494179 -597.448364
84.419998 -45.495922 -597.468323
84.970001 -45.496792 -597.478271
85.529999 -45.499409 -597.508179
86.080002 -45.502022 -597.538025
86.629997 -45.503765 -597.557983
87.190002 -45.509865 -597.627686
87.720001 -45.500278 -597.518127
88.260002 -45.493305 -597.438416
88.809998 -45.491562 -597.418518
89.360001 -45.493305 -597.438416
89.910004 -45.493305 -597.438416
90.459999 -45.495922 -597.468323
90.989998 -45.484589 -597.338806
91.519997 -45.483223 -597.208435
92.059998 -45.477993 -597.148682
