1371
22.780001 -110.989494 -602.910889
23.350000 -110.995598 -602.980591
23.920000 -111.049011 -603.246948
24.490000 -111.127213 -603.681824
25.070000 -111.201050 -604.066833
25.639999 -111.235786 -604.234436
26.190001 -111.200180 -604.056885
26.730000 -111.126335 -603.671875
27.270000 -111.048141 -603.237000
27.820000 -110.990364 -602.920837
28.360001 -110.934334 -602.624634
28.920000 -110.911301 -602.476074
29.480000 -110.932594 -602.604675
30.080000 -111.082008 -603.394653
30.680000 -111.221466 -604.185547
31.270000 -111.317474 -604.709167
31.850000 -111.372635 -604.995422
32.410000 -111.403885 -605.123169
32.970001 -111.372635 -604.995422
33.500000 -111.272270 -604.421997
34.020000 -111.157593 -603.799622
34.540001 -111.009041 -603.019592
35.070000 -110.917397 -602.545776
35.590000 -110.798363 -601.873596
36.110001 -110.669365 -601.202271
36.639999 -110.593781 -600.797302
37.200001 -110.591164 -600.767456
37.779999 -110.664131 -601.142517
38.389999 -110.815292 -601.952393
38.990002 -110.950394 -602.693481
39.580002 -111.009041 -603.019592
40.139999 -111.028595 -603.128296
40.689999 -110.988625 -602.900940
41.209999 -110.907814 -602.436218
41.759998 -110.856140 -602.189758
42.290001 -110.800102 -601.893494
42.849998 -110.782295 -601.804749
43.419998 -110.816170 -601.962402
44.000000 -110.874817 -602.288513
44.599998 -110.986877 -602.880981
45.180000 -111.042038 -603.167297
45.750000 -111.065079 -603.315857
46.310001 -111.046402 -603.217102
46.869999 -111.064201 -603.305908
47.450001 -111.117622 -603.572266
48.040001 -111.178886 -603.928223
48.639999 -111.252724 -604.313293
49.220001 -111.311371 -604.639404
49.799999 -111.344368 -604.787109
50.360001 -111.348724 -604.836914
50.910000 -111.311371 -604.639404
51.459999 -111.290947 -604.520752
52.029999 -111.307014 -604.589600
52.630001 -111.386078 -605.034424
53.220001 -111.456436 -605.379578
53.840000 -111.576340 -606.061707
54.450001 -111.669731 -606.555481
55.060001 -111.779182 -607.118042
55.689999 -111.895599 -607.760376
56.349998 -112.086739 -608.797668
56.990002 -112.237030 -609.597595
57.590000 -112.309998 -609.972656
58.169998 -112.333031 -610.121216
58.770000 -112.389931 -610.427429
59.380001 -112.465515 -610.832397
60.009998 -112.596260 -611.523621
60.639999 -112.710938 -612.145996
61.279999 -112.828232 -612.798279
61.889999 -112.917259 -613.242188
62.520000 -113.017624 -613.815613
63.180000 -113.183105 -614.674438
18.910000 -111.774109 -604.076965
19.480000 -111.848816 -604.471924
20.040001 -111.817566 -604.344177
20.590000 -111.773239 -604.066956
21.139999 -111.703758 -603.731750
21.690001 -111.662041 -603.484436
22.230000 -111.591690 -603.139282
22.790001 -111.571274 -603.020569
23.360001 -111.623817 -603.276978
23.930000 -111.680717 -603.583191
24.510000 -111.759789 -604.028015
25.090000 -111.829269 -604.363220
25.639999 -111.815819 -604.324219
26.190001 -111.758919 -604.018066
26.730000 -111.679848 -603.573242
27.280001 -111.625557 -603.296936
27.820000 -111.565170 -602.950867
28.370001 -111.510880 -602.674561
28.940001 -111.533913 -602.823120
29.520000 -111.626434 -603.306885
30.129999 -111.809723 -604.254517
30.719999 -111.910080 -604.827942
31.299999 -112.002594 -605.311707
31.870001 -112.023888 -605.440369
32.419998 -111.983917 -605.212952
32.959999 -111.908340 -604.808044
33.480000 -111.776726 -604.106812
34.000000 -111.642494 -603.375732
34.520000 -111.510880 -602.674561
35.060001 -111.432686 -602.239685
35.580002 -111.306297 -601.598267
36.099998 -111.208557 -601.054749
36.630001 -111.115166 -600.560974
37.200001 -111.149902 -600.728577
37.779999 -111.229843 -601.183350
38.389999 -111.380135 -601.983337
39.000000 -111.510010 -602.664612
39.570000 -111.547363 -602.862061
40.130001 -111.565170 -602.950867
40.680000 -111.530426 -602.783264
41.220001 -111.467422 -602.407288
41.750000 -111.410522 -602.101135
42.279999 -111.336685 -601.716064
42.840000 -111.318878 -601.627319
43.400002 -111.335808 -601.706116
43.990002 -111.411392 -602.111084
44.590000 -111.510010 -602.664612
45.180000 -111.586464 -603.079529
45.759998 -111.624687 -603.286926
46.310001 -111.602524 -603.148376
46.869999 -111.618591 -603.217224
47.450001 -111.673752 -603.503479
48.040001 -111.731522 -603.819702
48.630001 -111.790169 -604.145813
49.220001 -111.850563 -604.491882
49.799999 -111.899620 -604.708374
50.360001 -111.903107 -604.748230
50.900002 -111.862267 -604.510925
51.439999 -111.824913 -604.313416
52.020000 -111.844460 -604.422119
52.610001 -111.903107 -604.748230
53.200001 -111.975204 -605.113342
53.810001 -112.072075 -605.646973
54.419998 -112.183273 -606.229492
55.049999 -112.302307 -606.901672
55.669998 -112.414375 -607.494141
56.320000 -112.582474 -608.382874
56.970001 -112.754929 -609.321411
57.580002 -112.844826 -609.775330
58.160000 -112.879570 -609.942932
58.759998 -112.941704 -610.308899
59.369999 -113.014671 -610.683960
59.980000 -113.095482 -611.148682
60.599998 -113.201447 -611.671448
61.259998 -113.358711 -612.551086
61.860001 -113.427315 -612.876343
62.490002 -113.527679 -613.449768
63.119999 -113.639740 -614.042236
19.490000 -112.443169 -604.610657
20.040001 -112.412788 -604.492859
20.600000 -112.371078 -604.245544
21.139999 -112.297234 -603.860535
21.690001 -112.255524 -603.613220
22.250000 -112.236847 -603.514465
22.809999 -112.223396 -603.475464
23.379999 -112.279434 -603.771729
23.959999 -112.368462 -604.215637
24.540001 -112.463593 -604.729309
25.100000 -112.467079 -604.769165
25.650000 -112.406685 -604.423096
26.200001 -112.334595 -604.058044
26.740000 -112.275948 -603.731873
27.290001 -112.217300 -603.405762
27.830000 -112.130013 -602.981750
28.389999 -112.139977 -602.980896
28.980000 -112.275070 -603.721924
29.580000 -112.426239 -604.531860
30.190001 -112.596947 -605.450439
30.770000 -112.656471 -605.786560
31.330000 -112.654724 -605.766602
31.889999 -112.635178 -605.657898
32.419998 -112.553490 -605.183228
32.959999 -112.447533 -604.660461
33.459999 -112.260757 -603.672974
33.990002 -112.162140 -603.119507
34.520000 -112.050072 -602.526978
35.049999 -111.954941 -602.013306
35.560001 -111.823326 -601.312134
36.090000 -111.744263 -600.867310
36.630001 -111.673904 -600.522156
37.189999 -111.693459 -600.630859
37.799999 -111.825073 -601.332031
38.410000 -111.975365 -602.132019
39.000000 -112.084808 -602.694580
39.580002 -112.124779 -602.921997
40.130001 -112.123909 -602.912048
40.680000 -112.084808 -602.694580
41.220001 -112.027039 -602.378418
41.759998 -111.975365 -602.132019
42.290001 -111.898911 -601.717102
42.820000 -111.839394 -601.380981
43.389999 -111.859810 -601.499634
43.980000 -111.933647 -601.884705
44.590000 -112.062645 -602.556030
45.180000 -112.139099 -602.970947
45.750000 -112.163879 -603.139404
46.299999 -112.159523 -603.089600
46.869999 -112.161263 -603.109497
47.439999 -112.199493 -603.316956
48.029999 -112.255524 -603.613220
48.619999 -112.329361 -603.998230
49.200001 -112.386269 -604.304443
49.779999 -112.421005 -604.472046
50.349998 -112.442299 -604.600708
50.900002 -112.407562 -604.433105
51.430000 -112.349785 -604.116943
52.000000 -112.380165 -604.234741
52.580002 -112.417519 -604.432190
53.180000 -112.494843 -604.857117
53.790001 -112.594337 -605.420593
54.410000 -112.704659 -605.993103
55.029999 -112.832787 -606.654480
55.639999 -112.928787 -607.178101
56.270000 -113.058655 -607.859375
56.939999 -113.252403 -608.926575
57.560001 -113.379662 -609.577942
58.150002 -113.402695 -609.726501
58.740002 -113.458733 -610.022766
59.330002 -113.513893 -610.309021
59.939999 -113.589470 -610.713989
60.570000 -113.699791 -611.286560
61.220001 -113.854446 -612.136292
61.840000 -113.962151 -612.678955
62.470001 -114.059898 -613.222534
63.099998 -114.168472 -613.775146
20.059999 -113.057076 -604.858093
20.600000 -112.950233 -604.325378
21.150000 -112.894203 -604.029114
21.700001 -112.868553 -603.850708
22.270000 -112.873787 -603.910461
22.840000 -112.912880 -604.127869
23.420000 -113.041008 -604.789246
24.000000 -113.117462 -605.204163
24.570000 -113.148720 -605.331909
25.120001 -113.081848 -605.026550
25.660000 -113.021461 -604.680542
26.200001 -112.929817 -604.206726
26.750000 -112.855980 -603.821655
27.290001 -112.795586 -603.475647
27.850000 -112.792976 -603.445740
28.440001 -112.911140 -604.107971
29.059999 -113.119209 -605.224060
29.639999 -113.211723 -605.707825
30.230000 -113.298134 -606.121887
30.790001 -113.305984 -606.211548
31.350000 -113.266014 -605.984192
31.889999 -113.193047 -605.609131
32.410000 -113.060562 -604.897949
32.930000 -112.929817 -604.206726
33.439999 -112.756493 -603.258179
33.970001 -112.662231 -602.754517
34.500000 -112.568840 -602.260742
35.029999 -112.460266 -601.708130
35.549999 -112.346458 -601.095703
36.080002 -112.268257 -600.660889
36.630001 -112.217453 -600.424377
37.200001 -112.268257 -600.660889
37.799999 -112.404228 -601.411865
38.410000 -112.534103 -602.093140
39.000000 -112.642677 -602.645813
39.580002 -112.696098 -602.912170
40.139999 -112.703941 -603.001831
40.680000 -112.643555 -602.655762
41.209999 -112.566231 -602.230896
41.750000 -112.516296 -602.004395
42.290001 -112.453293 -601.628418
42.820000 -112.382065 -601.273254
43.380001 -112.384682 -601.303162
43.959999 -112.456779 -601.668274
44.580002 -112.606201 -602.458252
45.169998 -112.683525 -602.883118
45.750000 -112.732582 -603.099670
46.299999 -112.701324 -602.971924
46.869999 -112.720879 -603.080627
47.450001 -112.770805 -603.307129
48.020000 -112.794716 -603.465637
48.610001 -112.865067 -603.810852
49.200001 -112.925461 -604.156921
49.770000 -112.962814 -604.354370
50.349998 -112.993195 -604.472168
50.900002 -112.974518 -604.373474
51.430000 -112.902420 -604.008362
51.990002 -112.904167 -604.028259
52.570000 -112.938904 -604.195862
53.160000 -113.000168 -604.551880
53.770000 -113.111359 -605.134399
54.389999 -113.225166 -605.746826
55.009998 -113.348938 -606.358337
55.619999 -113.445816 -606.891968
56.240002 -113.560493 -607.514343
56.900002 -113.748138 -608.511780
57.540001 -113.897560 -609.301758
58.130001 -113.950111 -609.558167
58.720001 -113.986588 -609.745667
59.320000 -114.048721 -610.111633
59.919998 -114.120819 -610.476746
60.549999 -114.231140 -611.049316
61.180000 -114.360138 -611.720642
61.830002 -114.493500 -612.441772
62.450001 -114.588631 -612.955444
63.070000 -114.682892 -613.459106
21.170000 -113.542847 -604.444153
21.719999 -113.505493 -604.246704
22.299999 -113.579330 -604.631714
22.889999 -113.724396 -605.371887
23.469999 -113.841690 -606.024170
24.030001 -113.819527 -605.885559
24.580000 -113.760880 -605.559448
25.129999 -113.692268 -605.234192
25.670000 -113.616684 -604.829224
26.219999 -113.557167 -604.493103
26.760000 -113.468140 -604.049194
27.320000 -113.468140 -604.049194
27.940001 -113.726135 -605.391785
28.540001 -113.874687 -606.171814
29.120001 -113.929848 -606.458130
29.690001 -113.950264 -606.576782
30.250000 -113.952881 -606.606689
30.809999 -113.914658 -606.399231
31.340000 -113.820396 -605.895508
31.879999 -113.724396 -605.371887
32.389999 -113.559784 -604.523010
32.910000 -113.411232 -603.742981
33.439999 -113.301781 -603.180359
33.959999 -113.185356 -602.538086
34.490002 -113.090225 -602.024414
35.020000 -112.977287 -601.421997
35.540001 -112.866966 -600.849426
36.080002 -112.796616 -600.504211
36.630001 -112.773582 -600.355652
37.200001 -112.827873 -600.632019
37.810001 -112.982521 -601.481750
38.419998 -113.124969 -602.192017
39.009998 -113.217484 -602.675781
39.590000 -113.276131 -603.001953
40.139999 -113.241394 -602.834351
40.680000 -113.187103 -602.557983
41.209999 -113.124969 -602.192017
41.750000 -113.069809 -601.905762
42.290001 -113.001198 -601.580505
42.820000 -112.941681 -601.244385
43.380001 -112.943420 -601.264343
43.959999 -112.995972 -601.520691
44.580002 -113.146263 -602.320679
45.169998 -113.237038 -602.784546
45.750000 -113.277000 -603.011902
46.299999 -113.271774 -602.952148
46.869999 -113.279617 -603.041809
47.439999 -113.311745 -603.179504
48.020000 -113.352585 -603.416870
48.599998 -113.408615 -603.713074
49.189999 -113.464653 -604.009338
49.770000 -113.513710 -604.225891
50.349998 -113.552811 -604.443298
50.900002 -113.520683 -604.305603
51.419998 -113.439003 -603.830872
51.970001 -113.421196 -603.742126
52.549999 -113.462036 -603.979431
53.139999 -113.516327 -604.255798
53.740002 -113.611458 -604.769470
54.360001 -113.736099 -605.390930
54.990002 -113.871201 -606.131958
55.610001 -113.979774 -606.684631
56.220001 -114.074036 -607.188354
56.860001 -114.239517 -608.047180
57.520000 -114.427170 -609.044617
58.119999 -114.485809 -609.370728
58.709999 -114.539230 -609.637085
59.299999 -114.578331 -609.854492
59.910000 -114.669106 -610.318359
60.509998 -114.726875 -610.634521
61.150002 -114.855003 -611.295898
61.799999 -115.022232 -612.174683
62.430000 -115.119102 -612.708252
63.040001 -115.209007 -613.162170
63.669998 -115.304138 -613.675781
22.370001 -114.488586 -606.419250
22.920000 -114.466423 -606.280701
23.469999 -114.411263 -605.994385
24.030001 -114.375648 -605.816833
24.590000 -114.343521 -605.679077
25.139999 -114.317871 -605.500671
25.690001 -114.266197 -605.254211
26.250000 -114.247520 -605.155457
26.840000 -114.341782 -605.659180
27.430000 -114.486839 -606.399353
28.020000 -114.598038 -606.981873
28.590000 -114.634521 -607.169434
29.160000 -114.620201 -607.120483
29.709999 -114.581100 -606.903076
30.260000 -114.526810 -606.626709
30.799999 -114.433426 -606.132996
31.330000 -114.335678 -605.589417
31.860001 -114.209297 -604.947998
32.380001 -114.063362 -604.197876
32.910000 -113.963875 -603.634399
33.430000 -113.834000 -602.953125
33.950001 -113.709358 -602.331604
34.480000 -113.591194 -601.669434
35.000000 -113.468292 -601.067810
35.529999 -113.391838 -600.652893
36.060001 -113.317131 -600.257935
36.619999 -113.311028 -600.188171
37.200001 -113.390099 -600.632996
37.820000 -113.559937 -601.541626
38.430000 -113.705872 -602.291809
39.009998 -113.795776 -602.745667
39.590000 -113.850937 -603.031982
40.139999 -113.800133 -602.795471
40.669998 -113.741486 -602.469360
41.200001 -113.652458 -602.025452
41.740002 -113.609871 -601.768127
42.279999 -113.537773 -601.403076
42.820000 -113.496063 -601.155762
43.369999 -113.484360 -601.136719
43.950001 -113.534286 -601.363220
44.580002 -113.721939 -602.360657
45.160000 -113.775352 -602.627014
45.750000 -113.835747 -602.973083
46.299999 -113.817940 -602.884277
46.860001 -113.817940 -602.884277
47.430000 -113.836617 -602.983032
48.009998 -113.892647 -603.279236
48.599998 -113.948685 -603.575500
49.180000 -114.015549 -603.880859
49.759998 -114.040321 -604.049316
50.340000 -114.090256 -604.275818
50.889999 -114.059006 -604.148071
51.410000 -113.985161 -603.763062
51.959999 -113.961258 -603.604492
52.540001 -113.995125 -603.762146
53.119999 -114.039452 -604.039368
53.730000 -114.146286 -604.572083
54.349998 -114.261841 -605.204407
54.970001 -114.385612 -605.815979
55.590000 -114.503777 -606.478149
56.209999 -114.610611 -607.010864
56.830002 -114.741356 -607.702148
57.500000 -114.941582 -608.728577
58.099998 -115.001099 -609.064697
58.689999 -115.053642 -609.321045
59.290001 -115.115776 -609.687012
59.889999 -115.182640 -609.992371
60.490002 -115.259972 -610.417236
61.130001 -115.388969 -611.088562
61.779999 -115.542747 -611.928345
62.419998 -115.667389 -612.549866
63.020000 -115.739487 -612.914978
63.639999 -115.831123 -613.388794
23.469999 -114.949577 -605.836853
24.049999 -115.039482 -606.290771
24.620001 -115.082069 -606.548035
25.209999 -115.170227 -606.981995
25.790001 -115.267097 -607.515564
26.370001 -115.322258 -607.801880
26.930000 -115.324005 -607.821777
27.500000 -115.322258 -607.801880
28.049999 -115.284035 -607.594421
28.610001 -115.261871 -607.455811
29.160000 -115.194130 -607.140503
29.709999 -115.133743 -606.794495
30.240000 -115.024292 -606.231873
30.770000 -114.914841 -605.669250
31.309999 -114.805389 -605.106689
31.840000 -114.707642 -604.563110
32.360001 -114.564323 -603.842896
32.900002 -114.470940 -603.349121
33.419998 -114.339325 -602.647949
33.950001 -114.242447 -602.114319
34.459999 -114.112579 -601.433044
35.000000 -114.021805 -600.969238
35.520000 -113.927544 -600.465515
36.060001 -113.875000 -600.209106
36.630001 -113.908867 -600.366760
37.230000 -114.023552 -600.989136
37.840000 -114.186417 -601.818115
38.430000 -114.267227 -602.282837
39.029999 -114.407936 -602.973206
39.590000 -114.407936 -602.973206
40.139999 -114.356255 -602.726746
40.669998 -114.297607 -602.400635
41.209999 -114.225517 -602.035522
41.740002 -114.149933 -601.630554
42.270000 -114.077835 -601.265442
42.810001 -114.036995 -601.028137
43.369999 -114.036125 -601.018127
43.959999 -114.129517 -601.511902
44.570000 -114.258514 -602.183228
45.160000 -114.317162 -602.509338
45.750000 -114.393616 -602.924255
46.299999 -114.388382 -602.864502
46.860001 -114.387512 -602.854492
47.430000 -114.395355 -602.944153
48.009998 -114.450516 -603.230469
48.590000 -114.498703 -603.437012
49.180000 -114.555611 -603.743225
49.750000 -114.591225 -603.920837
50.330002 -114.628578 -604.118286
50.880001 -114.609032 -604.009583
51.410000 -114.536064 -603.634521
51.959999 -114.519127 -603.555725
52.529999 -114.535187 -603.624573
53.110001 -114.575157 -603.851929
53.709999 -114.667671 -604.335754
54.320000 -114.775383 -604.878418
54.970001 -114.940865 -605.737244
55.570000 -115.021675 -606.201965
56.189999 -115.131126 -606.764587
56.810001 -115.257515 -607.406006
57.470001 -115.457733 -608.432495
58.099998 -115.568054 -609.005005
58.669998 -115.588478 -609.123718
59.259998 -115.641891 -609.390076
59.869999 -115.720963 -609.834839
60.480000 -115.793930 -610.209900
61.110001 -115.919441 -610.841370
61.750000 -116.051926 -611.552551
62.400002 -116.202225 -612.352478
63.009998 -116.277802 -612.757446
63.630001 -116.369446 -613.231262
24.680000 -115.889221 -607.742249
25.250000 -115.946999 -608.058411
25.830000 -116.003899 -608.364624
26.400000 -116.006516 -608.394470
26.950001 -115.963928 -608.137207
27.500000 -115.891830 -607.772095
28.049999 -115.841034 -607.535645
28.600000 -115.778023 -607.159729
29.139999 -115.693352 -606.765564
29.680000 -115.599091 -606.261902
30.219999 -115.504837 -605.758179
30.750000 -115.378448 -605.116760
31.280001 -115.265511 -604.514282
31.820000 -115.194290 -604.159180
32.360001 -115.102646 -603.685364
32.889999 -114.992325 -603.112793
33.400002 -114.845520 -602.352661
33.930000 -114.746033 -601.789185
34.450001 -114.621384 -601.167725
35.000000 -114.581421 -600.940308
35.520000 -114.476326 -600.427551
36.070000 -114.450676 -600.249084
36.650002 -114.509323 -600.575195
37.250000 -114.634834 -601.206665
37.849998 -114.765579 -601.897949
38.439999 -114.855476 -602.351807
39.040001 -114.987091 -603.053040
39.599998 -114.984482 -603.023132
40.130001 -114.899811 -602.629028
40.669998 -114.835930 -602.243103
41.200001 -114.750389 -601.839050
41.740002 -114.696098 -601.562683
42.270000 -114.633965 -601.196716
42.810001 -114.582291 -600.950317
43.349998 -114.542320 -600.722900
43.970001 -114.691742 -601.512878
44.570000 -114.803802 -602.105408
45.160000 -114.873283 -602.440613
45.750000 -114.949738 -602.855530
46.299999 -114.934547 -602.796631
46.849998 -114.915001 -602.687927
47.430000 -114.965805 -602.924377
48.009998 -115.002281 -603.111938
48.590000 -115.059189 -603.418091
49.180000 -115.114349 -603.704407
49.750000 -115.148216 -603.862061
50.320000 -115.170380 -604.000671
50.869999 -115.151703 -603.901917
51.400002 -115.060059 -603.428101
51.939999 -115.039642 -603.309387
52.509998 -115.041382 -603.329346
53.090000 -115.093056 -603.575745
53.689999 -115.184700 -604.049561
54.299999 -115.281578 -604.583191
54.950001 -115.459633 -605.471008
55.549999 -115.553024 -605.964783
56.169998 -115.665962 -606.567200
56.790001 -115.772797 -607.099915
57.450001 -115.975632 -608.156250
58.080002 -116.087700 -608.748779
58.669998 -116.147217 -609.084839
59.259998 -116.184570 -609.282349
59.849998 -116.250565 -609.577698
60.459999 -116.323532 -609.952820
61.090000 -116.440826 -610.605042
61.730000 -116.583275 -611.315308
62.389999 -116.749634 -612.184143
63.000000 -116.826088 -612.599060
63.619999 -116.917732 -613.072876
64.239998 -117.021950 -613.575684
25.270000 -116.590408 -608.413696
25.830000 -116.573471 -608.334839
26.389999 -116.539604 -608.177185
26.940001 -116.464020 -607.772278
27.490000 -116.394539 -607.437012
28.040001 -116.336769 -607.120850
28.580000 -116.265541 -606.765747
29.120001 -116.174767 -606.301880
29.660000 -116.076149 -605.748352
30.200001 -115.984505 -605.274536
30.730000 -115.875053 -604.711914
31.260000 -115.768219 -604.179199
31.820000 -115.766479 -604.159302
32.349998 -115.636604 -603.478027
32.869999 -115.492416 -602.747803
33.389999 -115.348228 -602.017578
33.910000 -115.237907 -601.445007
34.439999 -115.143646 -600.941345
34.990002 -115.105415 -600.733887
35.529999 -115.067192 -600.526428
36.090000 -115.066322 -600.516479
36.660000 -115.119736 -600.782837
37.259998 -115.231804 -601.375305
37.860001 -115.343864 -601.967773
38.459999 -115.488930 -602.707947
39.060001 -115.600121 -603.290466
39.599998 -115.544960 -603.004211
40.130001 -115.454193 -602.540344
40.669998 -115.383835 -602.195190
41.200001 -115.322578 -601.839172
41.740002 -115.253967 -601.513916
42.270000 -115.181870 -601.148804
42.810001 -115.143646 -600.941345
43.369999 -115.157967 -600.990295
43.970001 -115.268288 -601.562805
44.560001 -115.327805 -601.898926
45.150002 -115.413345 -602.302979
45.740002 -115.505867 -602.786804
46.310001 -115.510223 -602.836609
46.860001 -115.492416 -602.747803
47.430000 -115.509354 -602.826660
48.000000 -115.546707 -603.024109
48.580002 -115.598381 -603.270569
49.169998 -115.656158 -603.586731
49.740002 -115.685669 -603.694580
50.320000 -115.724770 -603.911987
50.869999 -115.705215 -603.803284
51.389999 -115.617058 -603.369324
51.939999 -115.596642 -603.250610
52.509998 -115.601868 -603.310425
53.080002 -115.631378 -603.418274
53.680000 -115.723022 -603.892090
54.290001 -115.819893 -604.425659
54.939999 -116.002312 -605.363342
55.549999 -116.109154 -605.896057
56.160000 -116.199051 -606.349915
56.770000 -116.307632 -606.902588
57.439999 -116.514824 -608.008728
58.060001 -116.626022 -608.591248
58.660000 -116.678566 -608.847656
59.250000 -116.733727 -609.133911
59.849998 -116.807564 -609.518982
60.459999 -116.878792 -609.874084
61.080002 -116.990852 -610.466614
61.709999 -117.101173 -611.039124
62.380001 -117.298782 -612.035706
62.990002 -117.376984 -612.470581
63.599998 -117.461655 -612.864685
64.199997 -117.505112 -613.131897
25.299999 -117.289856 -609.065186
25.830000 -117.112663 -608.187317
26.379999 -117.070084 -607.930054
26.920000 -116.948921 -607.348389
27.469999 -116.889404 -607.012268
28.020000 -116.817307 -606.647156
28.559999 -116.741730 -606.242249
29.090000 -116.614471 -605.590820
29.639999 -116.563667 -605.354370
30.170000 -116.448120 -604.722046
30.719999 -116.399925 -604.515442
31.280001 -116.377762 -604.376831
31.799999 -116.253120 -603.755371
32.330002 -116.108063 -603.015198
32.849998 -115.976448 -602.313965
33.369999 -115.848320 -601.652649
33.900002 -115.761032 -601.228638
34.430000 -115.647224 -600.616211
34.970001 -115.609871 -600.418701
35.529999 -115.595551 -600.369751
36.090000 -115.626801 -600.497559
36.669998 -115.698029 -600.852661
37.279999 -115.845703 -601.622742
37.889999 -115.995125 -602.412720
38.490002 -116.139313 -603.142944
39.060001 -116.160606 -603.271545
39.599998 -116.086769 -602.886536
40.130001 -115.995995 -602.422668
40.660000 -115.939095 -602.116455
41.200001 -115.866997 -601.751343
41.740002 -115.813576 -601.484985
42.270000 -115.752319 -601.129028
42.820000 -115.705002 -600.932373
43.389999 -115.755806 -601.168823
43.970001 -115.813576 -601.484985
44.560001 -115.883934 -601.830200
45.139999 -115.941704 -602.146362
45.750000 -116.068092 -602.787781
46.310001 -116.066345 -602.767883
46.860001 -116.044182 -602.629272
47.419998 -116.061119 -602.708069
48.000000 -116.101959 -602.945435
48.580002 -116.138443 -603.132996
49.160000 -116.194473 -603.429199
49.740002 -116.245277 -603.665710
50.310001 -116.262215 -603.744507
50.860001 -116.231834 -603.626709
51.389999 -116.155380 -603.211792
51.919998 -116.101089 -602.935486
52.480000 -116.100220 -602.925537
53.060001 -116.137573 -603.122986
53.669998 -116.260468 -603.724609
54.279999 -116.359085 -604.278076
54.930000 -116.552338 -605.224854
55.540001 -116.630531 -605.659668
56.150002 -116.735626 -606.172485
56.759998 -116.829018 -606.666199
57.419998 -117.030983 -607.712585
58.049999 -117.161728 -608.403870
58.650002 -117.229462 -608.719116
59.230000 -117.265945 -608.906677
59.849998 -117.360207 -609.410400
60.439999 -117.413620 -609.676758
61.060001 -117.522202 -610.229370
61.700001 -117.648590 -610.870789
62.380001 -117.854912 -611.966980
62.990002 -117.943939 -612.410889
63.590000 -118.001717 -612.727112
64.199997 -118.068581 -613.032410
25.379999 -118.193008 -610.783020
25.830000 -117.684853 -608.187439
26.379999 -117.611885 -607.812378
26.920000 -117.498077 -607.199951
27.469999 -117.431213 -606.894592
28.000000 -117.301338 -606.213318
28.530001 -117.168854 -605.502197
29.070000 -117.102859 -605.206787
29.629999 -117.084183 -605.108032
30.180000 -117.012085 -604.742981
30.719999 -116.949951 -604.376953
31.260000 -116.848351 -603.904053
31.790001 -116.738029 -603.331482
32.310001 -116.606415 -602.630249
32.830002 -116.477409 -601.958984
33.349998 -116.351028 -601.317505
33.889999 -116.264610 -600.903503
34.430000 -116.204224 -600.557434
34.970001 -116.154289 -600.330933
35.520000 -116.119553 -600.163330
36.090000 -116.188156 -600.488586
36.709999 -116.385765 -601.485168
37.320000 -116.535187 -602.275146
37.930000 -116.677635 -602.985413
38.520000 -116.768410 -603.449280
39.060001 -116.716736 -603.202820
39.599998 -116.644638 -602.837708
40.119999 -116.552124 -602.353943
40.660000 -116.480896 -601.998779
41.200001 -116.423996 -601.692627
41.730000 -116.366219 -601.376465
42.270000 -116.312798 -601.110107
42.830002 -116.314545 -601.130005
43.400002 -116.332352 -601.218811
43.970001 -116.367088 -601.386414
44.560001 -116.440056 -601.761475
45.150002 -116.530830 -602.225342
45.759998 -116.658958 -602.886658
46.320000 -116.658958 -602.886658
46.860001 -116.620728 -602.679199
47.430000 -116.622475 -602.699158
48.000000 -116.660698 -602.906616
48.580002 -116.711502 -603.143066
49.169998 -116.766663 -603.429321
49.740002 -116.800537 -603.586975
50.310001 -116.805763 -603.646790
50.860001 -116.788826 -603.567932
51.389999 -116.716736 -603.202820
51.919998 -116.660698 -602.906616
52.490002 -116.673279 -602.935608
53.060001 -116.692825 -603.044312
53.660000 -116.785339 -603.528076
54.270000 -116.893921 -604.080750
54.930000 -117.097633 -605.147034
55.529999 -117.187531 -605.600952
56.139999 -117.274818 -606.024963
56.740002 -117.365593 -606.488770
57.410000 -117.567558 -607.535156
58.049999 -117.729553 -608.354187
58.650002 -117.786461 -608.660400
59.230000 -117.836388 -608.886902
59.830002 -117.895912 -609.222961
60.430000 -117.964516 -609.548218
61.060001 -118.078331 -610.160645
61.680000 -118.184296 -610.683411
62.360001 -118.398834 -611.758789
63.000000 -118.514389 -612.391113
63.580002 -118.549995 -612.568726
64.180000 -118.602547 -612.825073
25.840000 -118.276588 -608.296265
26.370001 -118.142365 -607.565186
26.910000 -118.034653 -607.022522
27.459999 -117.962563 -606.657410
28.000000 -117.877014 -606.253296
28.549999 -117.818367 -605.927185
29.090000 -117.713280 -605.414368
29.620001 -117.617271 -604.890747
30.170000 -117.545181 -604.525635
30.700001 -117.441826 -604.032776
31.230000 -117.331505 -603.460205
31.770000 -117.238991 -602.976440
32.290001 -117.089569 -602.186462
32.820000 -116.983604 -601.663696
33.340000 -116.861580 -601.072083
33.880001 -116.785995 -600.667175
34.419998 -116.726479 -600.331055
34.959999 -116.678291 -600.124451
35.529999 -116.710419 -600.262207
36.139999 -116.876770 -601.130981
36.759998 -117.093056 -602.226318
37.360001 -117.203377 -602.798889
37.959999 -117.344086 -603.489258
38.529999 -117.349312 -603.549011
39.070000 -117.289795 -603.212952
39.590000 -117.182961 -602.680237
40.119999 -117.090439 -602.196411
40.660000 -117.037025 -601.930054
41.189999 -116.948868 -601.496094
41.730000 -116.909767 -601.278687
42.279999 -116.872414 -601.081177
42.840000 -116.874153 -601.101135
43.400002 -116.876770 -601.130981
43.959999 -116.906281 -601.238831
44.549999 -116.980118 -601.623901
45.160000 -117.094803 -602.246216
45.770000 -117.235504 -602.936584
46.330002 -117.233765 -602.916687
46.869999 -117.179474 -602.640381
47.419998 -117.165154 -602.591431
48.000000 -117.216827 -602.837830
48.590000 -117.273727 -603.144043
49.150002 -117.291534 -603.232849
49.730000 -117.326279 -603.400452
50.290001 -117.342339 -603.469299
50.840000 -117.307602 -603.301697
51.369999 -117.249825 -602.985535
51.910000 -117.197281 -602.729126
52.470001 -117.198151 -602.739136
53.049999 -117.234634 -602.926636
53.650002 -117.327148 -603.410400
54.270000 -117.452660 -604.041870
54.930000 -117.664589 -605.087402
55.520000 -117.724983 -605.433472
56.139999 -117.833557 -605.986084
56.730000 -117.899551 -606.281433
57.389999 -118.102394 -607.337830
58.049999 -118.284813 -608.275452
58.639999 -118.339096 -608.551819
59.230000 -118.390778 -608.798218
59.830002 -118.450294 -609.134338
60.419998 -118.500221 -609.360840
61.049999 -118.628349 -610.022156
61.680000 -118.736931 -610.574829
62.340000 -118.920219 -611.522461
62.990002 -119.065285 -612.262634
63.570000 -119.099152 -612.420288
64.169998 -119.152573 -612.686646
25.830000 -118.825745 -608.147827
26.370001 -118.683296 -607.437561
26.900000 -118.556915 -606.796143
27.450001 -118.483070 -606.411072
27.990000 -118.377983 -605.898315
28.530001 -118.298912 -605.453491
29.059999 -118.179497 -604.891785
29.610001 -118.102173 -604.466919
30.150000 -118.015762 -604.052856
30.680000 -117.924118 -603.579041
31.219999 -117.829857 -603.075317
31.750000 -117.720406 -602.512756
32.279999 -117.614441 -601.989990
32.799999 -117.490669 -601.378418
33.330002 -117.395538 -600.864746
33.869999 -117.309998 -600.460693
34.410000 -117.270897 -600.243286
34.980000 -117.288704 -600.332031
35.590000 -117.467636 -601.229858
36.200001 -117.634865 -602.108643
36.790001 -117.743439 -602.661316
37.389999 -117.848534 -603.174072
37.990002 -117.992722 -603.904297
38.540001 -117.938438 -603.627991
39.060001 -117.833344 -603.115173
39.590000 -117.739082 -602.611511
40.119999 -117.650925 -602.177490
40.660000 -117.595764 -601.891235
41.189999 -117.521057 -601.496216
41.730000 -117.451576 -601.161011
42.270000 -117.416832 -600.993408
42.830002 -117.415092 -600.973511
43.400002 -117.435509 -601.092163
43.970001 -117.482826 -601.288757
44.560001 -117.572731 -601.742676
45.169998 -117.699989 -602.394043
45.779999 -117.812920 -602.996521
46.330002 -117.795990 -602.917664
46.869999 -117.739960 -602.621460
47.430000 -117.756020 -602.690308
48.000000 -117.778183 -602.828918
48.580002 -117.812050 -602.986572
49.150002 -117.848534 -603.174072
49.730000 -117.880661 -603.311829
50.299999 -117.901955 -603.440430
50.840000 -117.864594 -603.242920
51.380001 -117.808563 -602.946716
51.910000 -117.757759 -602.710205
52.470001 -117.756020 -602.690308
53.040001 -117.776436 -602.808960
53.650002 -117.867210 -603.272827
54.270000 -118.007042 -603.953247
54.919998 -118.203781 -604.939819
55.529999 -118.296295 -605.423645
56.130001 -118.370140 -605.808655
56.730000 -118.458298 -606.242615
57.380001 -118.623779 -607.101440
58.040001 -118.819641 -608.078125
58.639999 -118.891739 -608.443237
59.230000 -118.946030 -608.719543
59.820000 -118.999443 -608.985901
60.439999 -119.093704 -609.489563
61.049999 -119.181862 -609.923584
61.660000 -119.271767 -610.377441
62.330002 -119.466759 -611.344116
62.980000 -119.629631 -612.173096
63.580002 -119.683044 -612.439453
64.160004 -119.703468 -612.558105
25.830000 -119.360580 -607.950500
26.350000 -119.185135 -607.092529
26.889999 -119.070450 -606.470154
27.430000 -118.984039 -606.056091
27.969999 -118.860268 -605.444519
28.510000 -118.782074 -605.009705
29.049999 -118.677849 -604.506897
29.590000 -118.602272 -604.101929
30.120001 -118.494560 -603.559265
30.660000 -118.392952 -603.086304
31.190001 -118.299568 -602.592590
31.730000 -118.209663 -602.138672
32.259998 -118.118019 -601.664856
32.799999 -118.045052 -601.289795
33.330002 -117.938217 -600.757080
33.869999 -117.884804 -600.490723
34.439999 -117.921288 -600.678223
35.029999 -118.029861 -601.230896
35.639999 -118.194473 -602.079773
36.220001 -118.264824 -602.424927
36.830002 -118.408150 -603.145203
37.439999 -118.569275 -603.954224
38.000000 -118.584465 -604.013123
38.529999 -118.494560 -603.559265
39.070000 -118.408150 -603.145203
39.590000 -118.294334 -602.532776
40.119999 -118.208794 -602.128723
40.650002 -118.134956 -601.743652
41.189999 -118.061119 -601.358643
41.730000 -118.012054 -601.142090
42.270000 -117.955154 -600.835876
42.820000 -117.956894 -600.855835
43.389999 -117.977318 -600.974487
43.970001 -118.044182 -601.279846
44.560001 -118.120636 -601.694763
45.189999 -118.295212 -602.542725
45.779999 -118.368179 -602.917847
46.330002 -118.349503 -602.819092
46.869999 -118.296082 -602.552734
47.439999 -118.329079 -602.700378
48.009998 -118.347755 -602.799133
48.580002 -118.386856 -603.016541
49.150002 -118.407272 -603.135254
49.730000 -118.439400 -603.272949
50.279999 -118.425079 -603.223999
50.830002 -118.403786 -603.095398
51.369999 -118.348625 -602.809082
51.910000 -118.313019 -602.631531
52.470001 -118.311272 -602.611633
53.040001 -118.328209 -602.690430
53.650002 -118.435043 -603.223145
54.270000 -118.564041 -603.894470
54.919998 -118.764267 -604.920898
55.540001 -118.873718 -605.483521
56.130001 -118.938843 -605.768921
56.720001 -119.010063 -606.124084
57.369999 -119.178162 -607.012817
58.040001 -119.390961 -608.068298
58.639999 -119.465668 -608.463257
59.220001 -119.495178 -608.571106
59.820000 -119.567276 -608.936218
60.430000 -119.642860 -609.341187
61.040001 -119.733635 -609.804993
61.650002 -119.820915 -610.229004
62.330002 -120.033722 -611.284485
62.980000 -120.182266 -612.064514
63.570000 -120.234818 -612.320923
64.160004 -120.270424 -612.498474
24.870001 -120.774879 -612.183289
25.400000 -120.546013 -611.058960
25.820000 -119.863289 -607.615356
26.350000 -119.718224 -606.875183
26.879999 -119.592712 -606.243774
27.420000 -119.500198 -605.759949
27.959999 -119.376427 -605.148438
28.500000 -119.273949 -604.665527
29.030001 -119.161880 -604.073059
29.570000 -119.088043 -603.687988
30.110001 -119.001625 -603.273987
30.650000 -118.897408 -602.771118
31.180000 -118.803146 -602.267456
31.719999 -118.731926 -601.912292
32.250000 -118.642021 -601.458374
32.799999 -118.586861 -601.172119
33.340000 -118.533440 -600.905762
33.889999 -118.502190 -600.778015
34.480000 -118.622475 -601.349670
35.070000 -118.709763 -601.773682
35.669998 -118.853081 -602.493958
36.270000 -118.966888 -603.106384
36.889999 -119.160141 -604.053101
37.459999 -119.212685 -604.309509
38.000000 -119.140587 -603.944397
38.540001 -119.055046 -603.540344
39.070000 -118.963402 -603.066528
39.599998 -118.873497 -602.612610
40.119999 -118.763176 -602.040039
40.650002 -118.680252 -601.665833
41.189999 -118.621597 -601.339722
41.730000 -118.567314 -601.063416
42.259998 -118.499573 -600.748108
42.810001 -118.481766 -600.659302
43.389999 -118.547760 -600.954712
43.970001 -118.586861 -601.172119
44.570000 -118.711502 -601.793640
45.200001 -118.888695 -602.671509
45.779999 -118.943855 -602.957825
46.320000 -118.893051 -602.721313
46.880001 -118.887817 -602.661560
47.439999 -118.892174 -602.711365
48.009998 -118.907372 -602.770264
48.580002 -118.927788 -602.888916
49.150002 -118.962532 -603.056519
49.720001 -118.994652 -603.194275
50.279999 -118.981209 -603.155273
50.820000 -118.943855 -602.957825
51.360001 -118.886948 -602.651611
51.910000 -118.853951 -602.503906
52.459999 -118.848724 -602.444153
53.040001 -118.888695 -602.671509
53.639999 -118.978592 -603.125427
54.279999 -119.142334 -603.964355
54.930000 -119.352516 -604.989929
55.529999 -119.428101 -605.394836
56.119999 -119.494095 -605.690247
56.720001 -119.553612 -606.026306
57.380001 -119.751221 -607.022888
58.040001 -119.946213 -607.989563
58.639999 -120.017441 -608.344727
59.209999 -120.034370 -608.423523
59.830002 -120.142082 -608.966248
60.430000 -120.210693 -609.291504
61.029999 -120.267593 -609.597717
61.639999 -120.354881 -610.021729
62.320000 -120.571167 -611.117004
62.970001 -120.732292 -611.926025
63.560001 -120.781349 -612.142578
64.160004 -120.836510 -612.428894
24.879999 -121.359642 -612.212463
25.430000 -121.270615 -611.768555
25.870001 -120.698204 -608.897522
26.340000 -120.235252 -606.589050
26.870001 -120.111481 -605.977539
27.420000 -120.038513 -605.602478
27.950001 -119.899551 -604.932007
28.480000 -119.773170 -604.290588
29.020000 -119.668076 -603.777771
29.559999 -119.579048 -603.333862
30.100000 -119.501724 -602.908997
30.629999 -119.415306 -602.494934
31.170000 -119.311089 -601.992126
31.709999 -119.253311 -601.675964
32.250000 -119.180344 -601.300903
32.790001 -119.128670 -601.054443
33.349998 -119.114349 -601.005493
33.910000 -119.144730 -601.123291
34.509998 -119.269371 -601.744812
35.110001 -119.417046 -602.514893
35.730000 -119.608559 -603.441711
36.330002 -119.733200 -604.063232
36.919998 -119.823975 -604.527039
37.470001 -119.790977 -604.379395
38.000000 -119.701073 -603.925476
38.529999 -119.591621 -603.362854
39.060001 -119.503464 -602.928894
39.590000 -119.412689 -602.465088
40.119999 -119.328018 -602.070923
40.650002 -119.238121 -601.617065
41.180000 -119.161667 -601.202148
41.720001 -119.106506 -600.915833
42.259998 -119.060059 -600.729187
42.820000 -119.057442 -600.699280
43.389999 -119.076988 -600.807983
43.970001 -119.159920 -601.182190
44.590000 -119.322792 -602.011169
45.220001 -119.504333 -602.938904
45.779999 -119.503464 -602.928894
46.320000 -119.450920 -602.672546
46.880001 -119.446564 -602.622681
47.439999 -119.451790 -602.682495
48.000000 -119.451790 -602.682495
48.580002 -119.485657 -602.840149
49.160000 -119.534721 -603.056702
49.720001 -119.535591 -603.066650
50.279999 -119.534721 -603.056702
50.820000 -119.482170 -602.800293
51.360001 -119.443077 -602.582886
51.910000 -119.425270 -602.494080
52.459999 -119.409203 -602.425232
53.040001 -119.444817 -602.602783
53.639999 -119.539078 -603.106506
54.320000 -119.789230 -604.359436
54.950001 -119.944252 -605.098755
55.529999 -119.982483 -605.306213
56.119999 -120.038513 -605.602478
56.720001 -120.123184 -605.996582
57.369999 -120.305603 -606.934265
58.040001 -120.515785 -607.959839
58.639999 -120.591370 -608.364807
59.220001 -120.620010 -608.462646
59.810001 -120.675171 -608.748962
60.419998 -120.748138 -609.124023
61.020000 -120.833679 -609.528076
61.639999 -120.928810 -610.041748
62.320000 -121.141609 -611.097229
62.959999 -121.281448 -611.777649
63.560001 -121.350052 -612.102905
64.169998 -121.409576 -612.438965
24.350000 -122.148117 -613.307922
24.879999 -121.913155 -612.113831
25.430000 -121.824997 -611.679871
25.959999 -121.647804 -610.802002
26.350000 -120.867828 -606.935242
26.870001 -120.666733 -605.898804
27.420000 -120.582062 -605.504700
27.950001 -120.457420 -604.883179
28.480000 -120.344482 -604.280762
29.020000 -120.225075 -603.719055
29.549999 -120.116493 -603.166382
30.090000 -120.029205 -602.742371
30.620001 -119.934074 -602.228699
31.160000 -119.831596 -601.745789
31.700001 -119.759506 -601.380737
32.240002 -119.710442 -601.164185
32.799999 -119.706085 -601.114319
33.360001 -119.706955 -601.124329
33.959999 -119.848534 -601.824646
34.590000 -120.083496 -603.018677
35.189999 -120.238518 -603.757996
35.790001 -120.381844 -604.478271
36.389999 -120.472610 -604.942078
36.939999 -120.451324 -604.813477
37.470001 -120.359680 -604.339661
38.000000 -120.241135 -603.787903
38.529999 -120.150360 -603.324036
39.060001 -120.059593 -602.860168
39.590000 -119.974915 -602.466064
40.119999 -119.884148 -602.002197
40.650002 -119.797729 -601.588135
41.180000 -119.702599 -601.074524
41.720001 -119.649178 -600.808167
42.270000 -119.629631 -600.699463
42.820000 -119.629631 -600.699463
43.400002 -119.664375 -600.867065
44.000000 -119.773827 -601.429626
44.630001 -119.974045 -602.456116
45.230000 -120.092590 -603.007874
45.790001 -120.076523 -602.939026
46.340000 -120.043526 -602.791321
46.880001 -120.001816 -602.544006
47.450001 -120.020493 -602.642761
48.009998 -120.039169 -602.741516
48.580002 -120.056107 -602.820313
49.150002 -120.090843 -602.987915
49.709999 -120.079140 -602.968872
50.270000 -120.060463 -602.870117
50.810001 -120.037430 -602.721558
51.360001 -120.001816 -602.544006
51.900002 -119.967072 -602.376404
52.470001 -119.983139 -602.445251
53.049999 -120.035683 -602.701660
53.660000 -120.129074 -603.195374
54.330002 -120.377480 -604.428467
54.950001 -120.503868 -605.069885
55.529999 -120.540352 -605.257385
56.130001 -120.610703 -605.602600
56.720001 -120.693634 -605.976807
57.400002 -120.912537 -607.101990
58.049999 -121.103172 -608.018860
58.639999 -121.156586 -608.285217
59.220001 -121.177010 -608.403870
59.799999 -121.213493 -608.591431
60.389999 -121.262550 -608.807983
61.020000 -121.386322 -609.419495
61.650002 -121.517067 -610.110718
62.310001 -121.690765 -610.948792
62.970001 -121.866211 -611.806763
63.560001 -121.906181 -612.034180
64.160004 -121.972176 -612.329529
24.330000 -122.609985 -612.735474
24.870001 -122.464920 -611.995300
25.420000 -122.375023 -611.541443
25.980000 -122.339409 -611.363831
26.430000 -121.805229 -608.700256
26.870001 -121.239799 -605.908936
27.420000 -121.150764 -605.464966
27.950001 -121.025253 -604.833557
28.480000 -120.900612 -604.212036
29.020000 -120.800751 -603.759033
29.549999 -120.690430 -603.186462
30.090000 -120.598778 -602.712646
30.620001 -120.475883 -602.111023
31.160000 -120.389465 -601.697021
31.700001 -120.333435 -601.400757
32.250000 -120.301308 -601.263062
32.810001 -120.316498 -601.321960
33.430000 -120.498047 -602.249634
34.070000 -120.814194 -603.797974
34.660000 -120.902351 -604.231934
35.250000 -120.977066 -604.626953
35.849998 -121.130348 -605.346313
36.400002 -121.095604 -605.178711
36.939999 -121.006577 -604.734802
37.470001 -120.900612 -604.212036
38.000000 -120.799004 -603.739075
38.529999 -120.705620 -603.245361
39.049999 -120.600525 -602.732544
39.590000 -120.514984 -602.328491
40.119999 -120.438530 -601.913574
40.650002 -120.355598 -601.539368
41.169998 -120.248764 -601.006653
41.709999 -120.190987 -600.690491
42.259998 -120.153633 -600.492981
42.830002 -120.189247 -600.670532
43.410000 -120.246147 -600.976746
44.020000 -120.403786 -601.745972
44.650002 -120.580978 -602.623840
45.250000 -120.684326 -603.116699
45.790001 -120.650459 -602.959045
46.330002 -120.597038 -602.692688
46.889999 -120.597908 -602.702637
47.459999 -120.601395 -602.742493
48.020000 -120.615715 -602.791443
48.590000 -120.633522 -602.880249
49.160000 -120.650459 -602.959045
49.720001 -120.653069 -602.988953
50.270000 -120.630905 -602.850342
50.810001 -120.577492 -602.583984
51.340000 -120.512367 -602.298584
51.900002 -120.524940 -602.327576
52.470001 -120.545364 -602.446289
53.060001 -120.611359 -602.741638
53.680000 -120.753807 -603.451904
54.349998 -120.988770 -604.645996
54.950001 -121.072571 -605.030151
55.529999 -121.107307 -605.197754
56.119999 -121.165085 -605.513916
56.720001 -121.249756 -605.908020
57.410000 -121.501656 -607.180969
58.049999 -121.661911 -607.980042
58.630001 -121.695778 -608.137634
59.200001 -121.709229 -608.176636
59.790001 -121.761772 -608.433044
60.400002 -121.850800 -608.876953
61.029999 -121.962868 -609.469421
61.639999 -122.062729 -609.922485
62.290001 -122.222984 -610.721558
62.959999 -122.405403 -611.659241
63.560001 -122.476624 -612.014343
64.160004 -122.530045 -612.280701
23.799999 -123.353256 -613.543762
24.330000 -123.156525 -612.557190
24.870001 -123.017563 -611.886719
25.420000 -122.928528 -611.442810
25.969999 -122.854691 -611.057739
26.520000 -122.748726 -610.535034
26.940001 -122.096008 -607.319641
27.430000 -121.778114 -605.751404
27.959999 -121.621346 -604.992188
28.490000 -121.496704 -604.370667
29.030001 -121.374680 -603.779053
29.559999 -121.281296 -603.285339
30.100000 -121.192261 -602.841370
30.639999 -121.123650 -602.516113
31.180000 -121.016815 -601.983398
31.719999 -120.964272 -601.727051
32.310001 -121.054169 -602.180908
32.970001 -121.423737 -603.995605
33.590000 -121.669540 -605.198792
34.180000 -121.739891 -605.543945
34.759998 -121.797668 -605.860107
35.320000 -121.809372 -605.879150
35.869999 -121.742500 -605.573853
36.400002 -121.639153 -605.080994
36.930000 -121.544891 -604.577271
37.459999 -121.443291 -604.104309
37.990002 -121.349030 -603.600647
38.529999 -121.261742 -603.176636
39.060001 -121.173584 -602.742615
39.590000 -121.087173 -602.328613
40.119999 -121.002495 -601.934509
40.660000 -120.943848 -601.608337
41.200001 -120.874367 -601.273132
41.730000 -120.787086 -600.849121
42.270000 -120.752342 -600.681519
42.849998 -120.820953 -601.006775
43.450001 -120.927788 -601.539490
44.049999 -121.049812 -602.131104
44.689999 -121.260002 -603.156677
45.250000 -121.261742 -603.176636
45.799999 -121.212685 -602.960083
46.360001 -121.211807 -602.950073
46.900002 -121.172714 -602.732666
47.470001 -121.206581 -602.890320
48.029999 -121.194008 -602.861328
48.610001 -121.241325 -603.057922
49.160000 -121.224388 -602.979126
49.720001 -121.222649 -602.959167
50.259998 -121.173584 -602.742615
50.799999 -121.105850 -602.427368
51.349998 -121.084557 -602.298706
51.910000 -121.083687 -602.288757
52.470001 -121.103233 -602.397461
53.060001 -121.169228 -602.692810
53.720001 -121.382027 -603.748291
54.369999 -121.594826 -604.803772
54.970001 -121.662567 -605.119080
55.540001 -121.686470 -605.277588
56.130001 -121.738144 -605.524048
56.730000 -121.826302 -605.958008
57.439999 -122.123779 -607.407593
58.049999 -122.227127 -607.900452
58.599998 -122.198486 -607.802551
59.189999 -122.248421 -608.029053
59.799999 -122.339188 -608.492920
60.410000 -122.439056 -608.945984
61.009998 -122.497704 -609.272095
61.639999 -122.615372 -609.813904
62.279999 -122.762177 -610.573975
62.950001 -122.957169 -611.540649
63.549999 -123.024910 -611.855957
64.150002 -123.091774 -612.161316
23.250000 -124.022697 -613.967041
23.780001 -123.809898 -612.911560
24.320000 -123.686996 -612.309998
24.860001 -123.550652 -611.669434
25.420000 -123.493752 -611.363220
25.969999 -123.392143 -610.890259
26.520000 -123.339592 -610.633911
27.049999 -123.163277 -609.765930
27.510000 -122.700325 -607.457520
27.969999 -122.246956 -605.258667
28.490000 -122.055450 -604.331848
29.030001 -121.961189 -603.828125
29.570000 -121.856094 -603.315308
30.110001 -121.785744 -602.970154
30.660000 -121.734070 -602.723694
