1400
-41.470001 -45.663383 -599.611877
-40.939999 -45.690399 -599.920715
-40.419998 -45.714428 -600.310059
-39.889999 -45.744934 -600.658752
-39.369999 -45.780293 -601.177673
-38.869999 -45.841797 -601.995422
-38.360001 -45.894093 -602.593140
-37.849998 -45.944267 -603.281372
-37.330002 -45.977013 -603.770386
-36.799999 -46.023205 -604.298340
-36.270000 -46.039391 -604.598083
-35.740002 -46.083839 -605.106140
-35.220001 -46.127041 -605.714661
-34.720001 -46.207722 -606.751587
-34.240002 -46.293255 -607.958740
-34.000000 -46.741604 -613.771790
-33.480000 -46.798752 -614.539734
-32.950001 -46.841953 -615.148254
-32.400002 -46.872459 -615.496948
-31.850000 -46.891258 -615.826538
-31.299999 -46.918274 -616.135376
-30.740000 -46.930477 -616.274841
-30.180000 -46.942680 -616.414307
-29.620001 -46.946163 -616.454163
-29.059999 -46.954010 -616.543823
-28.490000 -46.951393 -616.513916
-27.920000 -46.940937 -616.394409
-27.340000 -46.921761 -616.175232
-26.760000 -46.902588 -615.956055
-26.190001 -46.892502 -615.726074
-25.610001 -46.875072 -615.526855
-25.040001 -46.853283 -615.277771
-24.469999 -46.838467 -615.108459
-23.879999 -46.814438 -614.719055
-23.309999 -46.790905 -614.450073
-22.719999 -46.735500 -613.702026
-22.129999 -46.693169 -613.103455
-21.540001 -46.628178 -612.245850
-20.959999 -46.600288 -611.927063
-20.370001 -46.528324 -610.989807
-18.040001 -46.319401 -608.257629
-17.459999 -46.274456 -607.629150
-16.889999 -46.232124 -607.030518
-16.309999 -46.173729 -606.363098
-15.740000 -46.148830 -605.963745
-15.170000 -46.103508 -605.445740
-14.600000 -46.055077 -604.777405
-14.030000 -46.013618 -604.188782
-13.460000 -45.955597 -603.410889
-12.890000 -45.898945 -602.763367
-12.320000 -45.841797 -601.995422
-11.760000 -45.809055 -601.506409
-11.200000 -45.784649 -601.227478
-10.650000 -45.780293 -601.177673
-10.090000 -45.784649 -601.227478
-9.540000 -45.795109 -601.346985
-9.000000 -45.825611 -601.695679
-8.450000 -45.833080 -601.895752
-7.900000 -45.862717 -602.234497
-7.350000 -45.893219 -602.583130
-6.800000 -45.932938 -603.151855
-6.250000 -45.973900 -603.620056
-4.600000 -46.122684 -605.664856
-4.040000 -46.088196 -605.155945
-3.480000 -46.012745 -604.178833
-2.920000 -45.962570 -603.490540
-2.370000 -45.902805 -602.692749
-1.810000 -45.833080 -601.895752
-1.250000 -45.774567 -600.997437
-0.700000 -45.710941 -600.270264
-0.150000 -45.638107 -599.322998
0.400000 -45.591415 -598.674561
0.950000 -45.513351 -597.667542
1.500000 -45.455334 -596.889648
2.040000 -45.409515 -596.251221
2.590000 -45.353237 -595.493225
3.130000 -45.310036 -594.884705
3.670000 -45.242054 -594.107666
4.210000 -45.188393 -593.379578
4.750000 -45.127758 -592.571777
5.290000 -45.073223 -591.833740
5.830000 -45.023048 -591.145447
6.360000 -44.975986 -590.607544
6.900000 -44.937138 -590.048767
7.430000 -44.897423 -589.480103
7.970000 -44.849487 -588.932190
8.500000 -44.801926 -588.273804
9.030000 -44.771797 -587.814697
9.560000 -44.728218 -587.316589
10.100000 -44.696346 -586.837524
10.630000 -44.662354 -586.449036
11.160000 -44.633099 -585.999878
11.690000 -44.597363 -585.591431
12.220000 -44.573334 -585.202026
12.750000 -44.539345 -584.813538
13.280000 -44.511456 -584.494751
13.800000 -44.483940 -584.065491
14.330000 -44.459534 -583.786560
14.860000 -44.433762 -583.377258
15.390000 -44.411976 -583.128235
15.910000 -44.383213 -582.799500
16.440001 -44.365284 -582.479797
16.959999 -44.339138 -582.180969
17.490000 -44.312119 -581.872131
18.020000 -44.299419 -581.612244
18.540001 -44.280247 -581.393127
19.070000 -44.251488 -581.064331
19.590000 -44.238789 -580.804443
20.120001 -44.218742 -580.575317
20.639999 -44.201309 -580.376099
21.170000 -44.177776 -580.107117
21.690001 -44.175537 -579.966797
22.219999 -44.160721 -579.797424
22.740000 -44.144161 -579.608154
23.270000 -44.128475 -579.428833
23.790001 -44.111916 -579.239563
24.320000 -44.102703 -579.019531
24.840000 -44.093117 -578.909973
25.370001 -44.087013 -578.840210
25.900000 -44.073940 -578.690796
26.420000 -44.064354 -578.581238
26.950001 -44.056511 -578.491577
27.480000 -44.046925 -578.381958
28.000000 -44.040821 -578.312256
28.530001 -44.042938 -578.221741
29.059999 -44.035095 -578.132080
29.590000 -44.032482 -578.102173
30.120001 -44.030739 -578.082275
30.639999 -44.024635 -578.012512
31.170000 -44.022896 -577.992615
31.700001 -44.017666 -577.932800
32.230000 -44.016792 -577.922852
32.759998 -44.016792 -577.922852
33.290001 -44.014179 -577.892944
33.820000 -44.013306 -577.882996
34.349998 -44.010693 -577.853149
34.880001 -44.009819 -577.843140
35.419998 -44.017666 -577.932800
35.950001 -44.015923 -577.912903
36.480000 -44.019409 -577.952759
37.009998 -44.019409 -577.952759
37.540001 -44.022896 -577.992615
38.070000 -44.022896 -577.992615
38.610001 -44.028122 -578.052368
39.139999 -44.028996 -578.062317
39.680000 -44.038582 -578.171875
40.209999 -44.039452 -578.181885
40.750000 -44.039951 -578.302307
41.279999 -44.043434 -578.342102
41.820000 -44.047794 -578.391968
42.360001 -44.057381 -578.501526
42.900002 -44.066967 -578.611084
43.439999 -44.076553 -578.720703
43.980000 -44.081783 -578.780457
44.520000 -44.091373 -578.890015
45.049999 -44.097473 -578.959778
45.599998 -44.102325 -579.130005
46.139999 -44.113659 -579.259521
46.689999 -44.127602 -579.418884
47.220001 -44.133701 -579.488647
47.779999 -44.153748 -579.717773
48.320000 -44.166824 -579.867188
48.869999 -44.169933 -580.017456
49.419998 -44.187366 -580.216736
49.959999 -44.202183 -580.386047
50.509998 -44.217869 -580.565369
51.060001 -44.234428 -580.754639
51.619999 -44.241898 -580.954773
52.169998 -44.258457 -581.144043
52.720001 -44.273273 -581.313416
53.259998 -44.285477 -581.452881
53.820000 -44.302036 -581.642151
54.360001 -44.304276 -581.782471
54.919998 -44.320835 -581.971741
55.459999 -44.332165 -582.101257
56.009998 -44.341751 -582.210876
56.560001 -44.353954 -582.350342
57.110001 -44.364414 -582.469849
57.660000 -44.369267 -582.640076
58.209999 -44.381470 -582.779541
58.759998 -44.392799 -582.909058
59.299999 -44.404129 -583.038574
59.849998 -44.415459 -583.168091
60.400002 -44.425919 -583.287598
60.959999 -44.432518 -583.477783
61.509998 -44.444717 -583.617249
62.060001 -44.455177 -583.736755
62.610001 -44.463894 -583.836365
63.160000 -44.478710 -584.005737
63.720001 -44.497013 -584.214966
64.269997 -44.496635 -584.325378
64.830002 -44.515812 -584.544556
65.389999 -44.528011 -584.684021
65.949997 -44.548058 -584.913147
66.510002 -44.563747 -585.092468
67.059998 -44.564243 -585.212891
67.620003 -44.582546 -585.422058
68.169998 -44.592133 -585.531677
68.730003 -44.608692 -585.720947
69.290001 -44.624382 -585.900269
69.849998 -44.624004 -586.010681
70.410004 -44.638824 -586.180054
70.959999 -44.646667 -586.269714
71.510002 -44.656254 -586.379272
72.070000 -44.669327 -586.528748
72.620003 -44.683273 -586.688110
73.180000 -44.692860 -586.797729
73.739998 -44.698586 -586.977905
74.300003 -44.712528 -587.137268
74.860001 -44.728218 -587.316589
75.410004 -44.732574 -587.366394
75.970001 -44.742165 -587.476013
76.500000 -44.737804 -587.426147
77.040001 -44.736061 -587.406250
77.559998 -44.727348 -587.306641
78.089996 -44.722118 -587.246887
78.629997 -44.717758 -587.197021
79.160004 -44.711658 -587.127319
79.690002 -44.703815 -587.037659
80.209999 -44.691612 -586.898193
80.690002 -44.667583 -586.508789
81.199997 -44.647537 -586.279663
81.690002 -44.620522 -585.970886
82.190002 -44.603462 -585.661194
82.680000 -44.575573 -585.342407
83.220001 -44.574703 -585.332397
83.760002 -44.574703 -585.332397
84.309998 -44.582546 -585.422058
84.870003 -44.598236 -585.601379
85.419998 -44.606949 -585.700989
85.989998 -44.620895 -585.860413
86.550003 -44.624004 -586.010681
87.080002 -44.617905 -585.940979
87.599998 -44.619152 -585.840515
88.120003 -44.609566 -585.730896
88.639999 -44.599106 -585.611389
89.139999 -44.574703 -585.332397
89.639999 -44.557270 -585.133179
90.129997 -44.534985 -584.763733
90.639999 -44.524529 -584.644165
91.160004 -44.510582 -584.484802
91.680000 -44.501865 -584.385193
92.209999 -44.498379 -584.345337
92.739998 -44.495766 -584.315430
93.260002 -44.487923 -584.225769
93.800003 -44.485306 -584.195862
94.339996 -44.486179 -584.205872
94.879997 -44.492279 -584.275574
95.419998 -44.493153 -584.285522
95.980003 -44.503609 -584.405090
96.529999 -44.512325 -584.504700
97.099998 -44.524529 -584.644165
97.680000 -44.547188 -584.903198
98.269997 -44.565987 -585.232788
98.860001 -44.590389 -585.511719
99.489998 -44.628365 -586.060547
100.120003 -44.674557 -586.588501
100.680000 -44.685886 -586.718018
101.239998 -44.685513 -586.828430
101.790001 -44.691612 -586.898193
102.370003 -44.709915 -587.107422
102.919998 -44.715145 -587.167175
103.459999 -44.715145 -587.167175
104.019997 -44.725605 -587.286682
104.580002 -44.735191 -587.396301
105.160004 -44.750877 -587.575623
105.769997 -44.775780 -587.974976
106.400002 -44.815872 -588.433228
107.059998 -44.864304 -589.101501
107.809998 -44.943737 -590.238953
108.669998 -45.079327 -591.903442
109.269997 -45.097252 -592.223083
109.830002 -45.105968 -592.322693
110.400002 -45.114685 -592.422363
110.940002 -45.115555 -592.432312
111.500000 -45.121658 -592.502014
112.070000 -45.133858 -592.641479
112.639999 -45.145187 -592.770996
113.239998 -45.159630 -593.050842
113.790001 -45.160503 -593.060791
114.370003 -45.177063 -593.250061
114.989998 -45.209309 -593.618652
115.610001 -45.231594 -593.988098
116.230003 -45.262970 -594.346741
116.870003 -45.296589 -594.845703
-50.639999 -46.032871 -597.180420
-50.080002 -46.024158 -597.080811
-49.520000 -46.011955 -596.941345
-48.970001 -46.011082 -596.931396
-48.410000 -46.003239 -596.841736
-47.860001 -45.998882 -596.791931
-47.310001 -45.996265 -596.762024
-46.759998 -45.991909 -596.712219
-46.200001 -45.984936 -596.632507
-45.639999 -45.972736 -596.493042
-45.099998 -45.977093 -596.542847
-44.549999 -45.978836 -596.562805
-44.029999 -46.005856 -596.871582
-43.520000 -46.050800 -597.500061
-43.049999 -46.134968 -598.576843
-42.529999 -46.168087 -598.955383
-42.000000 -46.186386 -599.164612
-41.450001 -46.188629 -599.304932
-40.930000 -46.215645 -599.613770
-40.400002 -46.247025 -599.972412
-39.880001 -46.283253 -600.501221
-39.380001 -46.334301 -601.199463
-38.880001 -46.401909 -602.086914
-38.369999 -46.460300 -602.754395
-37.849998 -46.495659 -603.273254
-37.330002 -46.537495 -603.751465
-36.799999 -46.565884 -604.190674
-36.259998 -46.594643 -604.519409
-35.730000 -46.628635 -604.907898
-35.200001 -46.659634 -605.377014
-34.700001 -46.723755 -606.224609
-34.220001 -46.840168 -607.669983
-33.980000 -47.272827 -613.303711
-33.459999 -47.325619 -614.021851
-32.930000 -47.378407 -614.739990
-32.389999 -47.415012 -615.158386
-31.840000 -47.436428 -615.517883
-31.280001 -47.453857 -615.717102
-30.730000 -47.472160 -615.926331
-30.170000 -47.477390 -615.986084
-29.610001 -47.486977 -616.095642
-29.040001 -47.497437 -616.215210
-28.469999 -47.480003 -616.015991
-27.900000 -47.472160 -615.926331
-27.320000 -47.453857 -615.717102
-26.740000 -47.428581 -615.428223
-26.160000 -47.410656 -615.108582
-25.590000 -47.383636 -614.799744
-25.010000 -47.356621 -614.490906
-24.430000 -47.347408 -614.270874
-23.850000 -47.309059 -613.832581
-23.270000 -47.274570 -613.323608
-22.680000 -47.215305 -612.646240
-22.090000 -47.172104 -612.037659
-21.500000 -47.109722 -611.209961
-20.920000 -47.068760 -610.741760
-20.330000 -47.002899 -609.874207
-19.760000 -46.980614 -609.504700
-19.170000 -46.900803 -608.477783
-18.590000 -46.863327 -608.049377
-18.010000 -46.802692 -607.241638
-17.440001 -46.770821 -606.762573
-16.870001 -46.731598 -606.314270
-16.299999 -46.704582 -606.005432
-15.730000 -46.678810 -605.596130
-15.160000 -46.632992 -604.957703
-14.590000 -46.571110 -604.250427
-14.020000 -46.521809 -603.572144
-13.450000 -46.485577 -603.043274
-12.880000 -46.417595 -602.266235
-12.310000 -46.377007 -601.687561
-11.750000 -46.332558 -601.179504
-11.190000 -46.319859 -600.919617
-10.640000 -46.314629 -600.859863
-10.090000 -46.318115 -600.899719
-9.540000 -46.334675 -601.088989
-8.990000 -46.352604 -601.408630
-8.440000 -46.371777 -601.627808
-7.890000 -46.398796 -601.936646
-7.340000 -46.416721 -602.256287
-6.800000 -46.458557 -602.734436
-6.250000 -46.498276 -603.303162
-5.710000 -46.594643 -604.519409
-5.150000 -46.629131 -605.028320
-4.600000 -46.612076 -604.718628
-4.040000 -46.570240 -604.240479
-3.480000 -46.520065 -603.552185
-2.920000 -46.475990 -602.933716
-2.360000 -46.409252 -602.056152
-1.810000 -46.351730 -601.398682
-1.250000 -46.278023 -600.441467
-0.700000 -46.214775 -599.603760
-0.150000 -46.152397 -598.776062
0.400000 -46.095249 -598.008118
0.950000 -46.037231 -597.230225
1.500000 -45.973606 -596.502991
2.040000 -45.919945 -595.774902
2.590000 -45.869770 -595.086670
3.130000 -45.817848 -594.378479
3.670000 -45.754227 -593.651306
4.210000 -45.697948 -592.893311
4.750000 -45.639931 -592.115417
5.290000 -45.580170 -591.317566
5.820000 -45.530491 -590.749756
6.360000 -45.497746 -590.260742
6.900000 -45.455414 -589.662170
7.430000 -45.405735 -589.094299
7.960000 -45.361660 -588.475769
8.500000 -45.317211 -587.967712
9.030000 -45.285339 -587.488708
9.560000 -45.243008 -586.890076
10.090000 -45.209015 -586.501587
10.620000 -45.175896 -586.123047
11.150000 -45.149254 -585.703735
11.680000 -45.111774 -585.275391
12.210000 -45.092106 -584.935791
12.740000 -45.053757 -584.497498
13.270000 -45.025867 -584.178711
13.800000 -45.000095 -583.769409
14.320000 -44.966976 -583.390869
14.850000 -44.952534 -583.111023
15.380000 -44.926388 -582.812195
15.910000 -44.898499 -582.493408
16.430000 -44.873222 -582.204529
16.959999 -44.855293 -581.884827
17.480000 -44.836121 -581.665710
18.010000 -44.804745 -581.307068
18.530001 -44.792915 -581.057129
19.059999 -44.771130 -580.808105
19.580000 -44.749340 -580.559021
20.110001 -44.729294 -580.329895
20.629999 -44.715721 -580.060059
21.160000 -44.701778 -579.900696
21.690001 -44.686962 -579.731323
22.209999 -44.666916 -579.502197
22.740000 -44.659073 -579.412537
23.260000 -44.647243 -579.162598
23.790001 -44.635914 -579.033142
24.309999 -44.617611 -578.823914
24.830000 -44.605412 -578.684448
25.360001 -44.598438 -578.604736
25.889999 -44.585365 -578.455322
26.420000 -44.579266 -578.385620
26.940001 -44.578766 -578.265198
27.469999 -44.569180 -578.155579
28.000000 -44.564823 -578.105774
28.520000 -44.559593 -578.046021
29.049999 -44.550877 -577.946411
29.580000 -44.543034 -577.856750
30.110001 -44.545647 -577.886597
30.639999 -44.539547 -577.816895
31.160000 -44.536060 -577.777039
31.690001 -44.536060 -577.777039
32.220001 -44.529961 -577.707336
32.750000 -44.530830 -577.717285
33.279999 -44.527344 -577.677429
33.810001 -44.529961 -577.707336
34.340000 -44.527344 -577.677429
34.869999 -44.527344 -577.677429
35.400002 -44.522987 -577.627625
35.930000 -44.527344 -577.677429
36.470001 -44.533447 -577.747131
37.000000 -44.530830 -577.717285
37.529999 -44.530830 -577.717285
38.060001 -44.537804 -577.796997
38.599998 -44.541290 -577.836792
39.139999 -44.550007 -577.936462
39.669998 -44.550877 -577.946411
40.200001 -44.554363 -577.986267
40.740002 -44.558720 -578.036072
41.270000 -44.565693 -578.115723
41.810001 -44.571793 -578.185486
42.349998 -44.582253 -578.305054
42.880001 -44.576649 -578.355713
43.419998 -44.587109 -578.475281
43.959999 -44.593208 -578.544983
44.500000 -44.605412 -578.684448
45.049999 -44.616741 -578.813965
45.590000 -44.626328 -578.923523
46.130001 -44.635914 -579.033142
46.669998 -44.648987 -579.182556
47.209999 -44.652100 -579.332825
47.759998 -44.665173 -579.482300
48.299999 -44.674759 -579.591858
48.849998 -44.687832 -579.741272
49.400002 -44.704391 -579.930542
49.950001 -44.721825 -580.129822
50.500000 -44.728420 -580.319946
51.040001 -44.741493 -580.469360
51.599998 -44.764156 -580.728394
52.150002 -44.778103 -580.887756
52.700001 -44.792915 -581.057129
53.250000 -44.799515 -581.247314
53.799999 -44.811714 -581.386780
54.340000 -44.823048 -581.516235
54.889999 -44.836121 -581.665710
55.439999 -44.852680 -581.854980
55.990002 -44.863136 -581.974487
56.529999 -44.861019 -582.065063
57.090000 -44.876709 -582.244324
57.639999 -44.890652 -582.403748
58.180000 -44.895882 -582.463501
58.730000 -44.909828 -582.622925
59.279999 -44.918545 -582.722534
59.830002 -44.931618 -582.871948
60.380001 -44.932983 -583.002319
60.930000 -44.947800 -583.171692
61.490002 -44.962620 -583.341064
62.029999 -44.970463 -583.430725
62.590000 -44.987022 -583.619995
63.130001 -44.993996 -583.699646
63.689999 -45.013168 -583.918823
64.250000 -45.021507 -584.128906
64.800003 -45.029354 -584.218567
65.360001 -45.045040 -584.397888
65.919998 -45.065086 -584.627014
66.480003 -45.078159 -584.776428
67.040001 -45.084759 -584.966553
67.580002 -45.090858 -585.036316
68.150002 -45.110905 -585.265442
68.699997 -45.121365 -585.385010
69.250000 -45.129208 -585.474609
69.809998 -45.146637 -585.673889
70.349998 -45.150124 -585.713745
70.919998 -45.158466 -585.923767
71.470001 -45.166309 -586.013428
72.029999 -45.181126 -586.182800
72.580002 -45.188969 -586.272461
73.139999 -45.203785 -586.441833
73.699997 -45.215118 -586.571350
74.250000 -45.225574 -586.690857
74.800003 -45.221714 -586.761475
75.360001 -45.237404 -586.940796
75.900002 -45.233917 -586.900940
76.440002 -45.240017 -586.970703
76.989998 -45.241760 -586.990601
77.519997 -45.238274 -586.950745
78.059998 -45.235661 -586.920837
78.589996 -45.229557 -586.851135
79.110001 -45.220844 -586.751526
79.650002 -45.219101 -586.731567
80.190002 -45.218227 -586.721619
80.730003 -45.218227 -586.721619
81.250000 -45.215988 -586.581299
81.779999 -45.211632 -586.531494
82.309998 -45.208145 -586.491638
82.820000 -45.186356 -586.242554
83.300003 -45.152363 -585.854065
83.800003 -45.138794 -585.584229
84.330002 -45.133564 -585.524475
84.860001 -45.130951 -585.494568
85.410004 -45.136181 -585.554321
85.949997 -45.139668 -585.594177
86.510002 -45.149254 -585.703735
87.070000 -45.154106 -585.873962
87.599998 -45.147137 -585.794312
88.110001 -45.137924 -585.574280
88.620003 -45.125721 -585.434814
89.110001 -45.096958 -585.106018
89.610001 -45.077785 -584.886902
90.110001 -45.066830 -584.646912
90.620003 -45.048527 -584.437744
91.129997 -45.034580 -584.278320
91.650002 -45.026737 -584.188660
92.180000 -45.023251 -584.148804
92.709999 -45.015408 -584.059143
93.239998 -45.013664 -584.039246
93.790001 -45.020638 -584.118958
94.330002 -45.018894 -584.098999
94.870003 -45.024124 -584.158813
95.410004 -45.025867 -584.178711
95.980003 -45.038940 -584.328125
96.529999 -45.048527 -584.437744
97.099998 -45.065956 -584.636963
97.669998 -45.069942 -584.797241
98.260002 -45.100445 -585.145874
98.900002 -45.139290 -585.704651
99.540001 -45.188969 -586.272461
100.120003 -45.209888 -586.511536
100.720001 -45.230431 -586.861084
101.279999 -45.240017 -586.970703
101.820000 -45.240887 -586.980652
102.349998 -45.239143 -586.960693
102.919998 -45.252220 -587.110168
103.489998 -45.266163 -587.269531
104.019997 -45.260933 -587.209778
104.589996 -45.274879 -587.369141
105.160004 -45.289696 -587.538513
105.779999 -45.318954 -587.987671
106.379997 -45.345100 -588.286499
107.029999 -45.390045 -588.914978
107.769997 -45.470726 -589.951904
108.709999 -45.637318 -592.085510
109.300003 -45.650887 -592.355347
109.870003 -45.660473 -592.464905
110.430000 -45.666573 -592.534668
110.970001 -45.664829 -592.514771
111.510002 -45.665703 -592.524719
112.120003 -45.692722 -592.833557
112.660004 -45.688362 -592.783691
113.239998 -45.706665 -592.992920
113.830002 -45.715008 -593.203003
114.419998 -45.736797 -593.452026
115.010002 -45.753353 -593.641296
115.620003 -45.782990 -593.980042
116.239998 -45.803532 -594.329590
116.879997 -45.845364 -594.807739
-50.630001 -46.573807 -597.052795
-50.070000 -46.561604 -596.913330
-49.509998 -46.555504 -596.843567
-48.959999 -46.548531 -596.763916
-48.400002 -46.538074 -596.644348
-47.849998 -46.535458 -596.614441
-47.299999 -46.535458 -596.614441
-46.750000 -46.533714 -596.594543
-46.200001 -46.529358 -596.544739
-45.650002 -46.526745 -596.514832
-45.099998 -46.528484 -596.534790
-44.560001 -46.535458 -596.614441
-44.040001 -46.568577 -596.993042
-43.560001 -46.639671 -597.920349
-43.060001 -46.686359 -598.568726
-42.520000 -46.700306 -598.728149
-41.970001 -46.708149 -598.817810
-41.439999 -46.723839 -598.997131
-40.910000 -46.742638 -599.326721
-40.389999 -46.778370 -599.735168
-39.889999 -46.834644 -600.493164
-39.389999 -46.906113 -601.310059
-38.880001 -46.954548 -601.978333
-38.360001 -46.984676 -602.437500
-37.830002 -47.021282 -602.855896
-37.299999 -47.058758 -603.284241
-36.790001 -47.108932 -603.972473
-36.259998 -47.143795 -604.370972
-35.730000 -47.174797 -604.840027
-35.189999 -47.204430 -605.178772
-34.680000 -47.260708 -605.936707
-34.200001 -47.369278 -607.292419
-33.959999 -47.793221 -612.826538
-33.430000 -47.850742 -613.484009
-32.910000 -47.918350 -614.371521
-32.369999 -47.961056 -614.859619
-31.830000 -47.987698 -615.278931
-31.270000 -48.003387 -615.458252
-30.719999 -48.020817 -615.657471
-30.160000 -48.027790 -615.737183
-29.600000 -48.040863 -615.886597
-29.030001 -48.039993 -615.876648
-28.459999 -48.031277 -615.777039
-27.889999 -48.015591 -615.597717
-27.309999 -47.992058 -615.328735
-26.730000 -47.972012 -615.099609
-26.150000 -47.952339 -614.760010
-25.570000 -47.921837 -614.411377
-24.990000 -47.886101 -614.002930
-24.410000 -47.861202 -613.603577
-23.820000 -47.815010 -613.075562
-23.240000 -47.776161 -612.516846
-22.650000 -47.715153 -611.819519
-22.059999 -47.665852 -611.141235
-21.480000 -47.619160 -610.492798
-20.889999 -47.563381 -609.855286
-20.309999 -47.518436 -609.226807
-19.730000 -47.469131 -608.548523
-19.150000 -47.405506 -607.821289
-18.570000 -47.372765 -607.332275
-18.000000 -47.331799 -606.864075
-17.430000 -47.312130 -606.524475
-16.860001 -47.277267 -606.125977
-16.299999 -47.250248 -605.817200
-15.730000 -47.209660 -605.238525
-15.160000 -47.159111 -604.660706
-14.580000 -47.101963 -603.892761
-14.010000 -47.059631 -603.294189
-13.440000 -47.007336 -602.696472
-12.880000 -46.958035 -602.018188
-12.310000 -46.904369 -601.290100
-11.750000 -46.866894 -600.861755
-11.190000 -46.854691 -600.722290
-10.640000 -46.852077 -600.692383
-10.090000 -46.864281 -600.831848
-9.540000 -46.879097 -601.001221
-8.990000 -46.892170 -601.150635
-8.440000 -46.911839 -601.490234
-7.890000 -46.937115 -601.779114
-7.340000 -46.954548 -601.978333
-6.790000 -46.985546 -602.447449
-6.240000 -47.017796 -602.816040
-5.700000 -47.074074 -603.574036
-5.150000 -47.114162 -604.032227
-4.590000 -47.111549 -604.002380
-4.030000 -47.077557 -603.613831
-3.480000 -47.035229 -603.015259
-2.920000 -46.992023 -602.406738
-2.360000 -46.921429 -601.599792
-1.810000 -46.863407 -600.821899
-1.250000 -46.796673 -599.944397
-0.700000 -46.736912 -599.146545
-0.150000 -46.661083 -598.279846
0.400000 -46.602192 -597.492004
0.950000 -46.536331 -596.624451
1.490000 -46.495743 -596.045776
2.040000 -46.425144 -595.238831
2.580000 -46.384556 -594.660156
3.130000 -46.326538 -593.882263
3.670000 -46.277729 -593.324402
4.210000 -46.204021 -592.367188
4.750000 -46.162563 -591.778564
5.280000 -46.092838 -590.981628
5.820000 -46.059223 -590.482666
6.360000 -46.016891 -589.884033
6.890000 -45.969826 -589.346130
7.420000 -45.922264 -588.687744
7.960000 -45.875202 -588.149780
8.490000 -45.846813 -587.710632
9.020000 -45.798878 -587.162720
9.560000 -45.771362 -586.733459
10.090000 -45.729530 -586.255310
10.620000 -45.686825 -585.767151
11.150000 -45.660179 -585.347900
11.680000 -45.625317 -584.949402
12.210000 -45.606518 -584.619812
12.730000 -45.573399 -584.241211
13.260000 -45.542892 -583.892578
13.790000 -45.520611 -583.523071
14.320000 -45.490974 -583.184387
14.850000 -45.463959 -582.875549
15.370000 -45.444286 -582.536011
15.900000 -45.419884 -582.257080
16.430000 -45.400707 -582.037903
16.950001 -45.365845 -581.639404
17.480000 -45.354893 -581.399475
18.000000 -45.333103 -581.150391
18.530001 -45.310444 -580.891418
19.049999 -45.286907 -580.622437
19.580000 -45.276825 -580.392456
20.100000 -45.254166 -580.133423
20.629999 -45.233250 -579.894348
21.150000 -45.214073 -579.675171
21.680000 -45.201874 -579.535706
22.200001 -45.190914 -579.295776
22.730000 -45.182201 -579.196106
23.260000 -45.164768 -578.996887
23.780001 -45.149952 -578.827515
24.299999 -45.135136 -578.658203
24.830000 -45.125549 -578.548584
25.360001 -45.121567 -578.388367
25.879999 -45.107620 -578.228943
26.410000 -45.101521 -578.159241
26.940001 -45.096291 -578.099426
27.459999 -45.089317 -578.019775
27.990000 -45.084961 -577.969910
28.520000 -45.077118 -577.880249
29.040001 -45.071014 -577.810547
29.570000 -45.064915 -577.740784
30.100000 -45.058815 -577.671082
30.629999 -45.055328 -577.631226
31.160000 -45.054459 -577.621277
31.690001 -45.050098 -577.571472
32.209999 -45.044868 -577.511658
32.740002 -45.041382 -577.471863
33.270000 -45.046612 -577.531616
33.799999 -45.046612 -577.531616
34.330002 -45.043999 -577.501709
34.860001 -45.043125 -577.491760
35.400002 -45.043999 -577.501709
35.919998 -45.038769 -577.441956
36.459999 -45.044868 -577.511658
36.990002 -45.050098 -577.571472
37.520000 -45.049229 -577.561523
38.060001 -45.053585 -577.611328
38.590000 -45.060558 -577.690979
39.119999 -45.062302 -577.710938
39.660000 -45.067532 -577.770691
40.189999 -45.071888 -577.820496
40.720001 -45.074501 -577.850403
41.259998 -45.077988 -577.890259
41.799999 -45.084961 -577.969910
42.330002 -45.092804 -578.059570
42.869999 -45.100651 -578.149231
43.410000 -45.111107 -578.268799
43.950001 -45.118954 -578.358459
44.490002 -45.122063 -578.508728
45.029999 -45.132523 -578.628296
45.570000 -45.142109 -578.737854
46.119999 -45.154312 -578.877319
46.660000 -45.162155 -578.966980
47.200001 -45.174358 -579.106445
47.740002 -45.185688 -579.235962
48.290001 -45.198761 -579.385376
48.830002 -45.202744 -579.545654
49.380001 -45.220173 -579.744934
49.939999 -45.239349 -579.964050
50.480000 -45.252422 -580.113525
51.029999 -45.270725 -580.322693
51.580002 -45.272964 -580.463013
52.130001 -45.292137 -580.682190
52.680000 -45.305210 -580.831604
53.230000 -45.320030 -581.000977
53.779999 -45.331360 -581.130493
54.320000 -45.342690 -581.260010
54.869999 -45.356632 -581.419373
55.430000 -45.363232 -581.609558
55.970001 -45.375435 -581.749023
56.520000 -45.388508 -581.898438
57.070000 -45.396351 -581.988098
57.619999 -45.409424 -582.137512
58.160000 -45.418140 -582.237122
58.709999 -45.430344 -582.376587
59.259998 -45.431709 -582.506958
59.810001 -45.446526 -582.676331
60.360001 -45.456116 -582.785889
60.910000 -45.469189 -582.935364
61.459999 -45.478775 -583.044922
62.009998 -45.490105 -583.174438
62.570000 -45.506664 -583.363708
63.119999 -45.519737 -583.513123
63.669998 -45.521107 -583.643494
64.220001 -45.535049 -583.802917
64.779999 -45.547253 -583.942383
65.330002 -45.562069 -584.111755
65.889999 -45.575142 -584.261169
66.449997 -45.593445 -584.470337
67.000000 -45.598297 -584.640564
67.570000 -45.615730 -584.839844
68.120003 -45.626190 -584.959351
68.669998 -45.636646 -585.078918
69.220001 -45.649719 -585.228333
69.779999 -45.659309 -585.337891
70.330002 -45.668896 -585.447510
70.879997 -45.670265 -585.577881
71.430000 -45.679852 -585.687439
71.989998 -45.690311 -585.807007
72.540001 -45.701641 -585.936523
73.099998 -45.712097 -586.056030
73.650002 -45.723431 -586.185547
74.199997 -45.729530 -586.255310
74.760002 -45.740860 -586.384766
75.300003 -45.746090 -586.444580
75.860001 -45.755676 -586.554138
76.389999 -45.754807 -586.544189
76.940002 -45.750072 -586.604797
77.489998 -45.757915 -586.694458
78.029999 -45.757046 -586.684509
78.570000 -45.757046 -586.684509
79.089996 -45.757420 -586.574097
79.629997 -45.754807 -586.544189
80.169998 -45.752190 -586.514282
80.709999 -45.752190 -586.514282
81.239998 -45.752190 -586.514282
81.779999 -45.752190 -586.514282
82.309998 -45.741730 -586.394775
82.849998 -45.744347 -586.424622
83.370003 -45.733887 -586.305115
83.870003 -45.712097 -586.056030
84.400002 -45.704254 -585.966370
84.930000 -45.698154 -585.896667
85.430000 -45.678108 -585.667542
85.970001 -45.677235 -585.657593
86.510002 -45.678108 -585.667542
87.070000 -45.691181 -585.816956
87.589996 -45.677235 -585.657593
88.080002 -45.662796 -585.377747
88.589996 -45.645363 -585.178528
89.089996 -45.626190 -584.959351
89.599998 -45.606144 -584.730225
90.089996 -45.580868 -584.441345
90.589996 -45.570786 -584.211365
91.110001 -45.560326 -584.091797
91.639999 -45.554226 -584.022095
92.169998 -45.553352 -584.012085
92.699997 -45.550739 -583.982239
93.239998 -45.548122 -583.952332
93.779999 -45.553352 -584.012085
94.320000 -45.551609 -583.992188
94.860001 -45.554226 -584.022095
95.419998 -45.565556 -584.151550
95.980003 -45.578629 -584.301025
96.540001 -45.579998 -584.431396
97.089996 -45.589584 -584.540955
97.690002 -45.618343 -584.869690
98.279999 -45.647980 -585.208435
98.930000 -45.692924 -585.836914
99.529999 -45.725170 -586.205505
100.139999 -45.748329 -586.584900
100.680000 -45.751816 -586.624756
101.230003 -45.756172 -586.674561
101.800003 -45.771862 -586.853882
102.360001 -45.781448 -586.963440
102.910004 -45.786678 -587.023254
103.489998 -45.804108 -587.222473
104.050003 -45.813698 -587.332031
104.599998 -45.817181 -587.371887
105.169998 -45.822906 -587.552063
105.769997 -45.853413 -587.900757
106.379997 -45.883919 -588.249390
107.059998 -45.940193 -589.007385
107.800003 -46.023487 -590.074219
108.699997 -46.169159 -591.968689
109.339996 -46.217094 -592.516602
109.919998 -46.223694 -592.706787
110.449997 -46.224068 -592.596313
110.989998 -46.222324 -592.576416
111.559998 -46.225437 -592.726685
112.129997 -46.236767 -592.856201
112.720001 -46.255939 -593.075378
113.290001 -46.269016 -593.224792
113.860001 -46.276859 -593.314453
114.440002 -46.291676 -593.483826
115.050003 -46.308731 -593.793518
115.639999 -46.329651 -594.032593
116.250000 -46.357540 -594.351379
116.910004 -46.398998 -594.940002
117.599998 -46.459137 -595.627380
-50.610001 -47.103413 -596.795654
-50.060001 -47.098183 -596.735901
-49.490002 -47.081623 -596.546631
-48.930000 -47.068550 -596.397156
-48.380001 -47.059834 -596.297546
-47.830002 -47.064190 -596.347351
-47.279999 -47.062447 -596.327454
-46.740002 -47.065063 -596.357300
-46.189999 -47.066807 -596.377258
-45.639999 -47.065933 -596.367310
-45.099998 -47.074650 -596.466919
-44.570000 -47.092079 -596.666138
-44.070000 -47.137897 -597.304565
-43.570000 -47.202393 -598.041748
-43.049999 -47.221191 -598.371399
-42.500000 -47.227295 -598.441101
-41.959999 -47.236881 -598.550720
-41.419998 -47.247341 -598.670227
-40.889999 -47.280460 -599.048828
-40.369999 -47.312332 -599.527832
-39.889999 -47.387783 -600.505005
-39.380001 -47.440075 -601.102722
-38.849998 -47.478424 -601.541016
-38.330002 -47.509426 -602.010132
-37.820000 -47.564831 -602.758118
-37.310001 -47.619740 -603.385742
-36.799999 -47.674271 -604.123779
-36.270000 -47.710007 -604.532227
-35.730000 -47.737022 -604.841064
-35.200001 -47.753208 -605.140747
-34.669998 -47.806374 -605.748474
-34.189999 -47.900997 -606.944763
-33.880001 -48.256840 -611.470947
-33.389999 -48.364536 -612.816711
-32.889999 -48.443474 -613.833679
-32.360001 -48.489292 -614.472107
-31.820000 -48.535484 -615.000122
-31.260000 -48.552044 -615.189392
-30.700001 -48.565117 -615.338806
-30.139999 -48.572090 -615.418518
-29.580000 -48.575577 -615.458374
-29.020000 -48.574329 -615.558838
-28.450001 -48.572960 -615.428467
-27.870001 -48.554657 -615.219299
-27.290001 -48.521538 -614.840698
-26.709999 -48.504108 -614.641479
-26.129999 -48.479210 -614.242126
-25.549999 -48.454803 -613.963196
-24.969999 -48.408611 -613.435242
-24.389999 -48.382839 -613.025879
-23.799999 -48.326187 -612.378357
-23.209999 -48.289085 -611.839539
-22.620001 -48.226334 -611.122314
-22.040001 -48.188358 -610.573547
-21.450001 -48.116894 -609.756653
-20.870001 -48.073689 -609.148071
-20.290001 -48.026131 -608.489746
-19.709999 -47.977322 -607.931885
-19.129999 -47.930634 -607.283447
-18.570000 -47.909714 -607.044373
-17.990000 -47.869621 -606.586121
-17.430000 -47.843475 -606.287292
-16.860001 -47.816833 -605.867981
-16.290001 -47.781971 -605.469543
-15.720000 -47.733540 -604.801208
-15.140000 -47.679501 -604.183533
-14.570000 -47.612766 -603.306030
-14.000000 -47.578777 -602.917542
-13.430000 -47.524242 -602.179443
-12.870000 -47.481537 -601.691345
-12.300000 -47.434849 -601.042908
-11.740000 -47.406956 -600.724121
-11.190000 -47.389526 -600.524902
-10.640000 -47.393883 -600.574707
-10.090000 -47.419159 -600.863586
-9.540000 -47.434849 -601.042908
-8.990000 -47.443562 -601.142578
-8.440000 -47.458378 -601.311890
-7.890000 -47.480167 -601.560974
-7.340000 -47.490253 -601.790955
-6.790000 -47.525986 -602.199402
-6.240000 -47.557362 -602.558044
-5.690000 -47.597080 -603.126709
-5.140000 -47.623226 -603.425598
-4.590000 -47.617996 -603.365784
-4.030000 -47.594463 -603.096863
-3.470000 -47.554749 -602.528137
-2.920000 -47.491123 -601.800903
-2.360000 -47.433975 -601.032959
-1.800000 -47.376827 -600.265015
-1.250000 -47.296642 -599.348511
-0.700000 -47.242981 -598.620422
-0.150000 -47.168404 -597.653259
0.400000 -47.116112 -597.055542
0.950000 -47.045017 -596.128174
1.490000 -47.008785 -595.599365
2.040000 -46.940308 -594.701904
2.580000 -46.896729 -594.203796
3.120000 -46.837837 -593.415955
3.670000 -46.784676 -592.808289
4.200000 -46.731010 -592.080139
4.740000 -46.668259 -591.362915
5.280000 -46.617214 -590.664673
5.820000 -46.567535 -590.096863
6.350000 -46.521717 -589.458435
6.890000 -46.479881 -588.980286
7.420000 -46.434063 -588.341797
7.950000 -46.391357 -587.853699
8.490000 -46.354256 -587.314880
9.020000 -46.316780 -586.886536
9.550000 -46.278805 -586.337708
10.080000 -46.244816 -585.949219
10.610000 -46.208584 -585.420349
11.140000 -46.176334 -585.051758
11.670000 -46.143215 -584.673218
12.200000 -46.115326 -584.354431
12.730000 -46.093914 -583.994934
13.260000 -46.065151 -583.666199
13.790000 -46.030289 -583.267700
14.310000 -46.012360 -582.948059
14.840000 -45.979240 -582.569519
15.370000 -45.956581 -582.310486
15.890000 -45.936913 -581.970886
16.420000 -45.915993 -581.731812
16.950001 -45.892460 -581.462830
17.469999 -45.870670 -581.213806
18.000000 -45.840168 -580.865112
18.520000 -45.831825 -580.655090
19.049999 -45.805679 -580.356201
19.570000 -45.783890 -580.107178
20.100000 -45.762974 -579.868042
20.620001 -45.757248 -579.687866
21.150000 -45.739819 -579.488647
21.670000 -45.722385 -579.289429
22.200001 -45.703213 -579.070251
22.719999 -45.689266 -578.910828
23.250000 -45.681423 -578.821167
23.770000 -45.660503 -578.582092
24.290001 -45.653034 -578.382019
24.820000 -45.641705 -578.252502
25.350000 -45.632992 -578.152893
25.870001 -45.626019 -578.073181
26.400000 -45.613815 -577.933716
26.930000 -45.609459 -577.883911
27.450001 -45.599873 -577.774292
27.980000 -45.596386 -577.734497
28.510000 -45.588539 -577.644836
29.040001 -45.589413 -577.654785
29.559999 -45.580696 -577.555176
30.090000 -45.577209 -577.515320
30.620001 -45.571980 -577.455505
31.150000 -45.569366 -577.425659
31.680000 -45.569366 -577.425659
32.209999 -45.565880 -577.385803
32.740002 -45.565010 -577.375854
33.270000 -45.571484 -577.335144
33.799999 -45.573227 -577.355042
34.330002 -45.568871 -577.305237
34.849998 -45.567127 -577.285278
35.380001 -45.566254 -577.275330
35.919998 -45.571484 -577.335144
36.450001 -45.571484 -577.335144
36.980000 -45.569366 -577.425659
37.520000 -45.570236 -577.435608
38.049999 -45.571980 -577.455505
38.580002 -45.572853 -577.465515
39.110001 -45.575466 -577.495361
39.650002 -45.581570 -577.565125
40.180000 -45.588539 -577.644836
40.720001 -45.591156 -577.674683
41.250000 -45.595512 -577.724487
41.790001 -45.604229 -577.824097
42.330002 -45.613815 -577.933716
42.860001 -45.617302 -577.973572
43.400002 -45.625145 -578.063232
43.939999 -45.634731 -578.172791
44.480000 -45.648678 -578.332214
45.020000 -45.655651 -578.411865
45.560001 -45.653534 -578.502380
46.099998 -45.663990 -578.621948
46.650002 -45.678806 -578.791321
47.189999 -45.690140 -578.920837
47.730000 -45.703213 -579.070251
48.270000 -45.712799 -579.179810
48.820000 -45.730228 -579.379089
49.369999 -45.745918 -579.558350
49.919998 -45.749027 -579.708679
50.470001 -45.764717 -579.888000
51.020000 -45.781277 -580.077271
51.560001 -45.796093 -580.246643
52.110001 -45.812653 -580.435913
52.660000 -45.826599 -580.595276
53.209999 -45.835312 -580.694885
53.759998 -45.840168 -580.865112
54.310001 -45.855858 -581.044434
54.860001 -45.869801 -581.203857
55.410000 -45.883747 -581.363220
55.950001 -45.896820 -581.512634
56.500000 -45.909019 -581.652100
57.049999 -45.922966 -581.811523
57.599998 -45.922592 -581.921997
58.150002 -45.933922 -582.051453
58.689999 -45.943508 -582.161072
59.240002 -45.953968 -582.280579
59.790001 -45.969654 -582.459900
60.340000 -45.974014 -582.509705
60.889999 -45.987957 -582.669128
61.439999 -46.000160 -582.808594
61.990002 -46.012360 -582.948059
62.529999 -46.018463 -583.017761
63.090000 -46.028545 -583.247803
63.650002 -46.040749 -583.387268
64.199997 -46.051208 -583.506775
64.750000 -46.066025 -583.676147
65.309998 -46.081711 -583.855469
65.860001 -46.096527 -584.024841
66.430000 -46.104870 -584.234863
66.980003 -46.115326 -584.354431
67.529999 -46.128399 -584.503845
68.080002 -46.140602 -584.643311
68.639999 -46.153675 -584.792725
69.190002 -46.159775 -584.862488
69.739998 -46.172852 -585.011902
70.300003 -46.184181 -585.141418
70.849998 -46.193768 -585.250977
71.400002 -46.191650 -585.341553
71.949997 -46.202980 -585.471069
72.510002 -46.214310 -585.600525
73.059998 -46.224770 -585.720093
73.610001 -46.231743 -585.799805
74.160004 -46.241329 -585.909363
74.720001 -46.251785 -586.028931
75.260002 -46.257889 -586.098633
75.809998 -46.264858 -586.178345
76.360001 -46.270088 -586.238098
76.900002 -46.273575 -586.277954
77.449997 -46.276192 -586.307861
77.989998 -46.279678 -586.347717
78.540001 -46.276688 -586.428284
79.080002 -46.284904 -586.407471
79.620003 -46.284035 -586.397522
80.150002 -46.280548 -586.357666
80.690002 -46.284035 -586.397522
81.230003 -46.279678 -586.347717
81.769997 -46.279678 -586.347717
82.300003 -46.277931 -586.327759
82.820000 -46.263988 -586.168396
83.360001 -46.264858 -586.178345
83.900002 -46.262245 -586.148438
84.419998 -46.256145 -586.078735
84.959999 -46.253529 -586.048828
85.480003 -46.244816 -585.949219
86.019997 -46.242199 -585.919312
86.540001 -46.230869 -585.789795
87.040001 -46.211697 -585.570679
87.540001 -46.188164 -585.301697
88.040001 -46.178078 -585.071716
88.550003 -46.158031 -584.842590
89.050003 -46.138859 -584.623413
89.559998 -46.120556 -584.414185
90.059998 -46.103996 -584.224915
90.580002 -46.094410 -584.115356
91.099998 -46.092171 -583.974976
91.620003 -46.081711 -583.855469
92.150002 -46.079098 -583.825562
92.690002 -46.081711 -583.855469
93.209999 -46.072994 -583.755859
93.760002 -46.079967 -583.835510
94.320000 -46.090427 -583.955078
94.860001 -46.092171 -583.974976
95.419998 -46.093536 -584.105408
95.970001 -46.103996 -584.224915
96.550003 -46.121429 -584.424133
97.110001 -46.137989 -584.613464
97.709999 -46.168491 -584.962097
98.330002 -46.197750 -585.411255
98.940002 -46.235226 -585.839661
99.519997 -46.256145 -586.078735
100.120003 -46.277557 -586.438232
100.680000 -46.287148 -586.547791
101.230003 -46.290630 -586.587646
101.790001 -46.301090 -586.707214
102.360001 -46.315907 -586.876526
102.919998 -46.326366 -586.996094
103.480003 -46.338570 -587.135559
104.050003 -46.353382 -587.304932
104.610001 -46.363842 -587.424438
105.169998 -46.363468 -587.534912
105.779999 -46.395718 -587.903503
106.379997 -46.423607 -588.222290
107.029999 -46.464195 -588.800964
107.760002 -46.541389 -589.798035
108.730003 -46.723663 -592.110901
109.370003 -46.765499 -592.589111
109.930000 -46.775085 -592.698669
110.480003 -46.778572 -592.738525
111.050003 -46.787289 -592.838135
111.589996 -46.784676 -592.808289
112.150002 -46.793388 -592.907898
112.730003 -46.809078 -593.087219
113.290001 -46.814308 -593.146973
113.879997 -46.822647 -593.357056
114.470001 -46.846180 -593.626038
115.070000 -46.868839 -593.885010
115.680000 -46.895859 -594.193848
116.290001 -46.912045 -594.493591
116.919998 -46.951263 -594.941833
117.559998 -46.991356 -595.400085
118.260002 -47.045887 -596.138184
-50.599998 -47.638245 -596.598267
-50.040001 -47.626041 -596.458801
-49.480000 -47.616455 -596.349243
-48.919998 -47.600769 -596.169922
-48.349998 -47.585079 -595.990601
-47.810001 -47.585953 -596.000549
-47.259998 -47.585953 -596.000549
-46.720001 -47.591183 -596.060364
-46.169998 -47.591183 -596.060364
-45.630001 -47.602512 -596.189880
-45.099998 -47.623428 -596.428955
-44.580002 -47.643970 -596.778503
-44.090000 -47.709339 -597.525635
-43.570000 -47.752914 -598.023743
-43.040001 -47.763870 -598.263672
-42.490002 -47.767357 -598.303528
-41.950001 -47.772587 -598.363281
-41.400002 -47.779560 -598.442993
-40.880001 -47.813549 -598.831482
-40.360001 -47.854511 -599.299744
-39.880001 -47.936935 -600.356567
-39.360001 -47.967937 -600.825623
-38.849998 -48.016747 -601.383484
-38.330002 -48.061691 -602.011963
-37.830002 -48.125317 -602.739197
-37.320000 -48.186821 -603.556946
-36.799999 -48.233883 -604.094910
-36.270000 -48.260033 -604.393738
-35.730000 -48.274471 -604.673584
-35.189999 -48.299747 -604.962463
-34.660000 -48.350300 -605.540283
-34.230000 -48.516014 -607.663879
-33.840000 -48.756687 -610.644287
-33.340000 -48.854797 -611.880432
-32.849998 -48.948551 -613.066772
-32.330002 -49.013546 -613.924377
-31.799999 -49.069324 -614.561890
-31.250000 -49.088123 -614.891541
-30.690001 -49.102070 -615.050903
-30.129999 -49.108170 -615.120667
-29.559999 -49.108170 -615.120667
-29.000000 -49.105556 -615.090759
-28.430000 -49.098583 -615.011108
-27.850000 -49.085884 -614.751221
-27.270000 -49.062351 -614.482239
-26.690001 -49.036205 -614.183350
-26.120001 -49.006573 -613.844666
-25.530001 -48.975571 -613.375549
-24.950001 -48.938965 -612.957153
-24.370001 -48.896259 -612.469055
-23.770000 -48.839111 -611.701111
-23.190001 -48.791176 -611.153198
-22.600000 -48.741871 -610.474915
-22.020000 -48.688705 -609.867249
-21.430000 -48.633301 -609.119202
-20.850000 -48.589725 -608.621094
-20.270000 -48.547394 -608.022522
-19.700001 -48.516888 -607.673828
-19.129999 -48.478912 -607.125061
-18.559999 -48.445793 -606.746521
-17.990000 -48.415291 -606.397827
-17.420000 -48.391758 -606.128906
-16.850000 -48.359886 -605.649841
-16.290001 -48.323280 -605.231445
-15.710000 -48.268745 -604.493408
-15.130000 -48.203381 -603.746216
-14.560000 -48.147102 -602.988281
-14.000000 -48.104397 -602.500122
-13.430000 -48.058578 -601.861694
-12.860000 -48.012386 -601.333679
-12.300000 -47.969681 -600.845581
-11.740000 -47.951752 -600.525940
-11.190000 -47.945652 -600.456177
-10.640000 -47.952625 -600.535889
-10.090000 -47.981880 -600.985046
-9.540000 -47.995827 -601.144409
-8.990000 -48.002800 -601.224121
-8.440000 -48.006287 -601.263977
-7.890000 -48.027203 -601.503052
-7.340000 -48.043762 -601.692322
-6.790000 -48.066921 -602.071777
-6.240000 -48.098297 -602.430359
-5.690000 -48.126186 -602.749146
-5.140000 -48.143616 -602.948425
-4.580000 -48.134903 -602.848816
-4.030000 -48.110497 -602.569824
-3.470000 -48.062939 -601.911499
-2.910000 -48.017616 -601.393494
-2.360000 -47.952625 -600.535889
-1.800000 -47.895103 -599.878357
-1.250000 -47.815292 -598.851440
-0.700000 -47.748184 -598.084351
-0.150000 -47.687550 -597.276550
0.400000 -47.633888 -596.548462
0.950000 -47.570263 -595.821228
1.490000 -47.509628 -595.013489
2.040000 -47.454720 -594.385864
2.580000 -47.408901 -593.747437
3.120000 -47.347893 -593.050110
3.660000 -47.300335 -592.391724
4.200000 -47.239326 -591.694397
4.740000 -47.189148 -591.006165
5.280000 -47.133369 -590.368591
5.810000 -47.090164 -589.760010
6.350000 -47.039616 -589.182251
6.880000 -47.003384 -588.653381
7.420000 -46.956322 -588.115417
7.950000 -46.917477 -587.556702
8.480000 -46.877384 -587.098450
9.020000 -46.835548 -586.620300
9.550000 -46.802807 -586.131287
10.080000 -46.767071 -585.722839
10.610000 -46.726109 -585.254639
11.140000 -46.702950 -584.875183
11.670000 -46.672447 -584.526550
12.200000 -46.640198 -584.157959
12.720000 -46.609200 -583.688843
13.250000 -46.582180 -583.380005
13.780000 -46.550804 -583.021423
14.310000 -46.526402 -582.742493
14.840000 -46.504112 -582.372986
15.360000 -46.478840 -582.084106
15.890000 -46.454433 -581.805176
16.420000 -46.425674 -581.476440
16.940001 -46.417332 -581.266357
17.469999 -46.388573 -580.937622
17.990000 -46.368526 -580.708496
18.520000 -46.341507 -580.399658
19.040001 -46.321461 -580.170532
19.570000 -46.312248 -579.950500
20.090000 -46.284359 -579.631714
20.620001 -46.277386 -579.552002
21.139999 -46.252983 -579.273071
21.670000 -46.240784 -579.133606
22.190001 -46.221607 -578.914490
22.719999 -46.206791 -578.745117
23.240000 -46.201065 -578.564941
23.770000 -46.193222 -578.475281
24.290001 -46.173176 -578.246155
24.820000 -46.162716 -578.126587
25.340000 -46.151386 -577.997070
25.870001 -46.141800 -577.887512
26.389999 -46.132214 -577.777954
26.920000 -46.127853 -577.728149
27.450001 -46.120880 -577.648438
27.980000 -46.113037 -577.558777
28.500000 -46.107807 -577.499023
29.030001 -46.105194 -577.469116
29.559999 -46.100838 -577.419312
30.080000 -46.097725 -577.268982
30.620001 -46.102081 -577.318787
31.139999 -46.099468 -577.288940
31.670000 -46.092495 -577.209229
32.200001 -46.092495 -577.209229
32.730000 -46.089882 -577.179321
33.259998 -46.088139 -577.159424
33.790001 -46.083778 -577.109619
34.320000 -46.086395 -577.139526
34.849998 -46.086395 -577.139526
35.380001 -46.089882 -577.179321
35.910000 -46.089008 -577.169373
36.439999 -46.091621 -577.199280
36.980000 -46.097725 -577.268982
37.509998 -46.098595 -577.278992
38.040001 -46.099468 -577.288940
38.570000 -46.094734 -577.349548
39.110001 -46.097351 -577.379456
39.639999 -46.103451 -577.449158
40.169998 -46.104321 -577.459167
40.709999 -46.110424 -577.528870
41.250000 -46.117393 -577.608582
41.779999 -46.123497 -577.678284
42.320000 -46.128727 -577.738098
42.849998 -46.134827 -577.807800
43.389999 -46.143543 -577.907410
43.930000 -46.153999 -578.026978
44.470001 -46.165333 -578.156494
45.009998 -46.173176 -578.246155
45.560001 -46.188862 -578.425476
46.090000 -46.192348 -578.465332
46.630001 -46.204552 -578.604797
47.180000 -46.207664 -578.755066
47.720001 -46.217251 -578.864685
48.270000 -46.235554 -579.073853
48.810001 -46.246883 -579.203369
49.360001 -46.262569 -579.382690
49.910000 -46.278259 -579.562012
50.459999 -46.293945 -579.741333
51.009998 -46.302288 -579.951355
51.549999 -46.312744 -580.070923
52.099998 -46.325821 -580.220337
