1407
35.240002 -51.579151 -610.778748
35.820000 -51.608784 -611.117493
36.410000 -51.640160 -611.476135
36.990002 -51.668053 -611.794922
37.560001 -51.687225 -612.014038
38.150002 -51.714245 -612.322876
38.740002 -51.755207 -612.791077
39.340000 -51.803143 -613.338989
39.939999 -51.835888 -613.828003
40.549999 -51.894279 -614.495483
41.139999 -51.924786 -614.844116
41.740002 -51.970978 -615.372131
42.360001 -52.038960 -616.149109
42.980000 -52.090878 -616.857300
43.549999 -52.101337 -616.976868
-21.280001 -51.613094 -604.511963
-20.709999 -51.583462 -604.173279
-20.129999 -51.534653 -603.615417
-19.570000 -51.503277 -603.256775
-19.000000 -51.467545 -602.848328
-18.440001 -51.441399 -602.549500
-17.870001 -51.415249 -602.250610
-17.309999 -51.379517 -601.842163
-16.740000 -51.354614 -601.442810
-16.190001 -51.342415 -601.303345
-15.630000 -51.327599 -601.133972
-15.070000 -51.320625 -601.054321
-14.520000 -51.313652 -600.974609
-13.970000 -51.314526 -600.984558
-13.410000 -51.311909 -600.954712
-12.860000 -51.296223 -600.775391
-12.300000 -51.266586 -600.436646
-11.740000 -51.254387 -600.297180
-11.190000 -51.241314 -600.147766
-10.630000 -51.236954 -600.097961
-10.090000 -51.255257 -600.307190
-9.540000 -51.265717 -600.426697
-8.990000 -51.285763 -600.655823
-8.440000 -51.306679 -600.894897
-7.890000 -51.310165 -600.934753
-7.330000 -51.300579 -600.825195
-6.780000 -51.285763 -600.655823
-6.220000 -51.279663 -600.586121
-5.670000 -51.300579 -600.825195
-5.120000 -51.311039 -600.944702
-4.570000 -51.264847 -600.416748
-4.010000 -51.244801 -600.187622
-3.460000 -51.230854 -600.028198
-2.910000 -51.232597 -600.048157
-2.360000 -51.242184 -600.157715
-1.810000 -51.258743 -600.346985
-1.250000 -51.258743 -600.346985
-0.700000 -51.241314 -600.147766
-0.150000 -51.239571 -600.127869
0.400000 -51.250900 -600.257324
0.950000 -51.283150 -600.625916
1.510000 -51.315395 -600.994507
2.060000 -51.306679 -600.894897
2.610000 -51.286633 -600.665771
3.160000 -51.284889 -600.645874
3.720000 -51.288376 -600.685730
4.270000 -51.290993 -600.715576
4.820000 -51.315395 -600.994507
5.380000 -51.342415 -601.303345
5.930000 -51.361588 -601.522522
6.490000 -51.347645 -601.363098
7.040000 -51.348515 -601.373108
7.590000 -51.350258 -601.393005
8.150000 -51.361588 -601.522522
8.700000 -51.367313 -601.702698
9.260000 -51.383873 -601.891968
9.820000 -51.403049 -602.111145
10.380000 -51.427452 -602.390076
10.930000 -51.436169 -602.489685
11.480000 -51.425709 -602.370178
12.040000 -51.426579 -602.380127
12.590000 -51.430939 -602.429932
13.150000 -51.440525 -602.539490
13.710000 -51.451855 -602.669006
14.260000 -51.467545 -602.848328
14.820000 -51.481487 -603.007690
15.380000 -51.475388 -602.937988
15.930000 -51.485847 -603.057556
16.490000 -51.503277 -603.256775
17.059999 -51.529423 -603.555603
17.620001 -51.551212 -603.804688
18.180000 -51.562542 -603.934204
18.740000 -51.572128 -604.043762
19.299999 -51.595661 -604.312744
19.860001 -51.607864 -604.452209
20.420000 -51.624424 -604.641479
21.000000 -51.664516 -605.099731
21.559999 -51.670616 -605.169434
22.110001 -51.674973 -605.219299
22.680000 -51.685432 -605.338806
23.240000 -51.714195 -605.667542
23.820000 -51.743828 -606.006287
24.379999 -51.762131 -606.215454
24.940001 -51.761757 -606.325928
25.510000 -51.777443 -606.505249
26.080000 -51.800102 -606.764221
26.650000 -51.822765 -607.023254
27.209999 -51.834095 -607.152771
27.790001 -51.861984 -607.471558
28.360001 -51.884644 -607.730530
28.930000 -51.903820 -607.949707
29.500000 -51.927353 -608.218689
30.070000 -51.945656 -608.427917
30.639999 -51.971802 -608.726746
31.230000 -52.012764 -609.194946
31.799999 -52.035423 -609.453979
32.380001 -52.066799 -609.812622
32.959999 -52.087715 -610.051697
33.529999 -52.111248 -610.320679
34.099998 -52.127808 -610.509949
34.689999 -52.157440 -610.848633
35.270000 -52.181473 -611.238037
35.869999 -52.232895 -611.825806
36.450001 -52.265141 -612.194397
37.049999 -52.313950 -612.752258
37.630001 -52.343578 -613.090942
38.209999 -52.365368 -613.340027
38.810001 -52.402847 -613.768372
39.400002 -52.436836 -614.156860
39.980000 -52.465599 -614.485596
40.599998 -52.533581 -615.262634
41.220001 -52.590729 -616.030579
41.830002 -52.643894 -616.638306
-22.389999 -52.166229 -604.523804
-21.830000 -52.146183 -604.294678
-21.250000 -52.110825 -603.775818
-20.680000 -52.079449 -603.417175
-20.120001 -52.051559 -603.098389
-19.549999 -52.023670 -602.779602
-18.980000 -51.980965 -602.291443
-18.420000 -51.960918 -602.062317
-17.860001 -51.930412 -601.713684
-17.299999 -51.906879 -601.444702
-16.730000 -51.865917 -600.976501
-16.170000 -51.855457 -600.856934
-15.620000 -51.836285 -600.637756
-15.060000 -51.830181 -600.568054
-14.510000 -51.821468 -600.468445
-13.950000 -51.819725 -600.448486
-13.400000 -51.819725 -600.448486
-12.850000 -51.831055 -600.578003
-12.300000 -51.823212 -600.488342
-11.740000 -51.807522 -600.309021
-11.190000 -51.787476 -600.079895
-10.630000 -51.777889 -599.970337
-10.080000 -51.784863 -600.050049
-9.530000 -51.795322 -600.169556
-8.980000 -51.814495 -600.388733
-8.430000 -51.832798 -600.597900
-7.880000 -51.843258 -600.717468
-7.330000 -51.825825 -600.518250
-6.770000 -51.807522 -600.309021
-6.220000 -51.797066 -600.189514
-5.670000 -51.794449 -600.159607
-5.120000 -51.821468 -600.468445
-4.570000 -51.828442 -600.548096
-4.010000 -51.791836 -600.129700
-3.460000 -51.765690 -599.830872
-2.910000 -51.757843 -599.741211
-2.360000 -51.761330 -599.781067
-1.800000 -51.776146 -599.950378
-1.250000 -51.800552 -600.229309
-0.700000 -51.797066 -600.189514
-0.150000 -51.785732 -600.059998
0.400000 -51.785732 -600.059998
0.950000 -51.806652 -600.299072
1.510000 -51.830181 -600.568054
2.060000 -51.860687 -600.916687
2.610000 -51.843258 -600.717468
3.160000 -51.830181 -600.568054
3.720000 -51.834541 -600.617859
4.270000 -51.838898 -600.667664
4.820000 -51.860687 -600.916687
5.380000 -51.874634 -601.076111
5.930000 -51.903393 -601.404846
6.490000 -51.915596 -601.544312
7.040000 -51.901649 -601.384949
7.590000 -51.899906 -601.364990
8.150000 -51.909496 -601.474609
8.700000 -51.923439 -601.633972
9.260000 -51.939129 -601.813293
9.810000 -51.946972 -601.902954
10.370000 -51.970505 -602.171936
10.930000 -52.000137 -602.510620
11.480000 -51.992294 -602.420959
12.040000 -51.985321 -602.341248
12.590000 -51.995777 -602.460815
13.150000 -51.999268 -602.500671
13.710000 -52.014084 -602.670044
14.260000 -52.027157 -602.819458
14.820000 -52.039356 -602.958923
15.380000 -52.055046 -603.138245
15.940000 -52.058533 -603.178101
16.500000 -52.080318 -603.427124
17.059999 -52.090778 -603.546692
17.620001 -52.113441 -603.805664
18.180000 -52.135227 -604.054749
18.740000 -52.147430 -604.194214
19.299999 -52.149670 -604.334534
19.860001 -52.163616 -604.493896
20.430000 -52.186275 -604.752930
21.000000 -52.217651 -605.111572
21.570000 -52.245541 -605.430359
22.120001 -52.246414 -605.440308
22.680000 -52.244671 -605.420410
23.250000 -52.274303 -605.759094
23.820000 -52.303062 -606.087830
24.389999 -52.338799 -606.496277
24.959999 -52.344028 -606.556030
25.520000 -52.351871 -606.645691
26.090000 -52.376274 -606.924622
26.660000 -52.402424 -607.223511
27.230000 -52.422466 -607.452637
27.799999 -52.439026 -607.641907
28.370001 -52.462559 -607.910889
28.940001 -52.495678 -608.289429
29.510000 -52.513981 -608.498596
30.090000 -52.542744 -608.827393
30.670000 -52.575863 -609.205933
31.250000 -52.608982 -609.584473
31.830000 -52.633385 -609.863403
32.400002 -52.657787 -610.142334
32.980000 -52.683933 -610.441223
33.560001 -52.705723 -610.690247
34.130001 -52.727512 -610.939331
34.720001 -52.768475 -611.407532
35.330002 -52.833843 -612.154663
35.930000 -52.885761 -612.862854
36.529999 -52.940670 -613.490417
37.099998 -52.949387 -613.590027
37.680000 -52.970303 -613.829163
38.259998 -52.979019 -613.928772
38.840000 -53.001678 -614.187744
39.430000 -53.046127 -614.695801
40.070000 -53.138512 -615.751770
40.709999 -53.230900 -616.807739
41.299999 -53.268375 -617.236145
-23.510000 -52.732815 -604.574646
-22.940001 -52.706669 -604.275757
-22.360001 -52.649143 -603.618286
-21.790001 -52.614285 -603.219788
-21.219999 -52.586391 -602.901001
-20.660000 -52.556759 -602.562317
-20.090000 -52.532356 -602.283386
-19.530001 -52.507080 -601.994507
-18.969999 -52.492264 -601.825134
-18.410000 -52.468735 -601.556152
-17.850000 -52.459145 -601.446594
-17.290001 -52.431255 -601.127808
-16.719999 -52.395523 -600.719360
-16.170000 -52.380707 -600.549988
-15.610000 -52.360661 -600.320862
-15.050000 -52.346714 -600.161499
-14.500000 -52.332771 -600.002075
-13.940000 -52.329285 -599.962219
-13.390000 -52.334515 -600.022034
-12.840000 -52.337128 -600.051880
-12.300000 -52.361530 -600.330811
-11.740000 -52.360661 -600.320862
-11.190000 -52.352814 -600.231201
-10.640000 -52.341484 -600.101685
-10.080000 -52.331898 -599.992126
-9.530000 -52.337997 -600.061829
-8.990000 -52.369373 -600.420471
-8.440000 -52.382446 -600.569946
-7.880000 -52.381577 -600.559937
-7.330000 -52.366760 -600.390625
-6.770000 -52.340614 -600.091736
-6.220000 -52.327541 -599.942322
-5.670000 -52.317951 -599.832764
-5.110000 -52.322311 -599.882568
-4.570000 -52.354561 -600.251160
-4.010000 -52.350201 -600.201355
-3.460000 -52.323181 -599.892517
-2.910000 -52.304008 -599.673340
-2.350000 -52.290062 -599.513977
-1.800000 -52.298779 -599.613586
-1.250000 -52.322311 -599.882568
-0.700000 -52.341484 -600.101685
-0.150000 -52.337997 -600.061829
0.400000 -52.331898 -599.992126
0.950000 -52.345844 -600.151489
1.510000 -52.366760 -600.390625
2.060000 -52.392906 -600.689453
2.610000 -52.415569 -600.948486
3.170000 -52.397266 -600.739258
3.720000 -52.393780 -600.699402
4.270000 -52.385937 -600.609741
4.820000 -52.398136 -600.749207
5.380000 -52.421669 -601.018188
5.930000 -52.436485 -601.187561
6.490000 -52.466118 -601.526245
7.040000 -52.480934 -601.695618
7.600000 -52.469604 -601.566101
8.150000 -52.469604 -601.566101
8.700000 -52.475704 -601.635864
9.260000 -52.486164 -601.755371
9.820000 -52.502724 -601.944641
10.370000 -52.517540 -602.114014
10.930000 -52.535843 -602.323242
11.490000 -52.558502 -602.582214
12.040000 -52.563732 -602.642029
12.600000 -52.556759 -602.562317
13.150000 -52.559376 -602.592224
13.710000 -52.573318 -602.751587
14.270000 -52.581161 -602.841248
14.830000 -52.599464 -603.050415
15.380000 -52.607311 -603.140076
15.950000 -52.633457 -603.438965
16.500000 -52.635201 -603.458862
17.059999 -52.643044 -603.548523
17.620001 -52.664833 -603.797607
18.190001 -52.691853 -604.106384
18.760000 -52.730202 -604.544739
19.309999 -52.736301 -604.614441
19.870001 -52.741531 -604.674255
20.440001 -52.759834 -604.883423
21.000000 -52.784237 -605.162354
21.570000 -52.815613 -605.520996
22.150000 -52.855705 -605.979248
22.700001 -52.851345 -605.929443
23.260000 -52.860062 -606.029053
23.830000 -52.882721 -606.288086
24.400000 -52.911484 -606.616821
24.969999 -52.930656 -606.835999
25.530001 -52.941116 -606.955505
26.100000 -52.956806 -607.134827
26.670000 -52.987309 -607.483521
27.250000 -53.020428 -607.862061
27.820000 -53.048317 -608.180847
28.400000 -53.072723 -608.459778
28.959999 -53.090153 -608.658997
29.540001 -53.118042 -608.977783
30.120001 -53.146805 -609.306519
30.690001 -53.163364 -609.495850
31.280001 -53.210426 -610.033752
31.850000 -53.235703 -610.322693
32.430000 -53.259235 -610.591614
33.009998 -53.284512 -610.880554
33.580002 -53.297585 -611.029968
34.169998 -53.343777 -611.557922
34.770000 -53.403042 -612.235352
35.380001 -53.474510 -613.052246
35.970001 -53.513729 -613.500549
36.560001 -53.541618 -613.819336
37.150002 -53.582584 -614.287537
37.730000 -53.600014 -614.486755
38.310001 -53.618317 -614.695984
38.889999 -53.646206 -615.014771
39.580002 -53.803959 -616.817871
40.209999 -53.885883 -617.754272
-24.670000 -53.389168 -605.651489
-24.070000 -53.304626 -604.685181
-23.480000 -53.237518 -603.918152
-22.910000 -53.191326 -603.390137
-22.330000 -53.149490 -602.911987
-21.770000 -53.123344 -602.613098
-21.200001 -53.088482 -602.214661
-20.629999 -53.047146 -601.856873
-20.070000 -53.022739 -601.577942
-19.510000 -53.000080 -601.318909
-18.950001 -52.987007 -601.169495
-18.400000 -52.983521 -601.129639
-17.840000 -52.975677 -601.039978
-17.280001 -52.960861 -600.870667
-16.719999 -52.920769 -600.412415
-16.160000 -52.902466 -600.203186
-15.600000 -52.885033 -600.003967
-15.050000 -52.871960 -599.854553
-14.490000 -52.863247 -599.754883
-13.940000 -52.853657 -599.645325
-13.390000 -52.850170 -599.605469
-12.830000 -52.851913 -599.625427
-12.290000 -52.867603 -599.804749
-11.740000 -52.885033 -600.003967
-11.190000 -52.892879 -600.093628
-10.640000 -52.893749 -600.103577
-10.080000 -52.884163 -599.994019
-9.530000 -52.888519 -600.043823
-8.980000 -52.905079 -600.233093
-8.430000 -52.894623 -600.113525
-7.880000 -52.899853 -600.173340
-7.330000 -52.894623 -600.113525
-6.770000 -52.876320 -599.904358
-6.220000 -52.852787 -599.635376
-5.660000 -52.832741 -599.406250
-5.110000 -52.835358 -599.436157
-4.560000 -52.858017 -599.695129
-4.010000 -52.889393 -600.053772
-3.460000 -52.872833 -599.864502
-2.910000 -52.850170 -599.605469
-2.360000 -52.842327 -599.515808
-1.800000 -52.842327 -599.515808
-1.250000 -52.848431 -599.585571
-0.700000 -52.867603 -599.804749
-0.150000 -52.898979 -600.163330
0.400000 -52.890263 -600.063721
0.950000 -52.885033 -600.003967
1.510000 -52.894623 -600.113525
2.060000 -52.919025 -600.392456
2.610000 -52.938198 -600.611633
3.170000 -52.963474 -600.900513
3.720000 -52.960861 -600.870667
4.270000 -52.945171 -600.691345
4.820000 -52.951275 -600.761047
5.380000 -52.958244 -600.840759
5.930000 -52.973061 -601.010132
6.490000 -52.996593 -601.279114
7.040000 -53.031456 -601.677551
7.600000 -53.028839 -601.647705
8.150000 -53.011410 -601.448425
8.700000 -53.026226 -601.617798
9.260000 -53.034943 -601.717407
9.810000 -53.043659 -601.817017
10.370000 -53.066692 -601.965576
10.930000 -53.088482 -602.214661
11.490000 -53.112885 -602.493591
12.050000 -53.139030 -602.792419
12.600000 -53.138161 -602.782471
13.150000 -53.129444 -602.682861
13.710000 -53.138161 -602.782471
14.270000 -53.151234 -602.931885
14.830000 -53.158207 -603.011597
15.390000 -53.175636 -603.210815
15.950000 -53.194813 -603.429993
16.510000 -53.207012 -603.569458
17.059999 -53.213116 -603.639221
17.620001 -53.230545 -603.838440
18.190001 -53.256695 -604.137268
18.750000 -53.283710 -604.446106
19.320000 -53.311600 -604.764893
19.879999 -53.315086 -604.804749
20.440001 -53.331646 -604.994019
21.010000 -53.351692 -605.223145
21.570000 -53.370869 -605.442322
22.150000 -53.419674 -606.000183
22.719999 -53.440590 -606.239258
23.280001 -53.448437 -606.328918
23.840000 -53.458893 -606.448486
24.410000 -53.486786 -606.767273
24.980000 -53.512058 -607.056152
25.549999 -53.532974 -607.295227
26.120001 -53.552151 -607.514404
26.690001 -53.580914 -607.843140
27.270000 -53.609673 -608.171875
27.840000 -53.644535 -608.570374
28.410000 -53.664581 -608.799500
28.990000 -53.693344 -609.128235
29.559999 -53.718616 -609.417114
30.150000 -53.756096 -609.845520
30.719999 -53.778755 -610.104492
31.299999 -53.813618 -610.502991
31.870001 -53.826691 -610.652405
32.459999 -53.870270 -611.150513
33.040001 -53.889442 -611.369690
33.630001 -53.942608 -611.977356
34.230000 -53.988800 -612.505310
34.820000 -54.035866 -613.043274
35.410000 -54.071598 -613.451721
36.040001 -54.177055 -614.657104
36.650002 -54.228477 -615.244873
37.209999 -54.224121 -615.195068
37.770000 -54.213661 -615.075500
-24.620001 -53.832489 -604.408142
-24.040001 -53.785427 -603.870178
-23.459999 -53.729645 -603.232605
-22.889999 -53.690426 -602.784363
-22.309999 -53.644234 -602.256348
-21.750000 -53.627674 -602.067078
-21.190001 -53.598911 -601.738342
-20.620001 -53.564049 -601.339844
-20.049999 -53.525700 -600.901550
-19.490000 -53.501297 -600.622620
-18.930000 -53.489967 -600.493103
-18.379999 -53.484737 -600.433350
-17.820000 -53.478638 -600.363586
-17.270000 -53.479507 -600.373535
-16.709999 -53.466434 -600.224121
-16.160000 -53.450748 -600.044800
-15.600000 -53.428085 -599.785828
-15.040000 -53.419373 -599.686157
-14.490000 -53.395466 -599.527649
-13.930000 -53.383263 -599.388184
-13.380000 -53.375420 -599.298523
-12.830000 -53.378906 -599.338379
-12.280000 -53.396336 -599.537598
-11.730000 -53.415012 -599.636353
-11.180000 -53.431572 -599.825623
-10.640000 -53.448132 -600.014954
-10.080000 -53.447262 -600.004944
-9.530000 -53.439419 -599.915283
-8.980000 -53.422859 -599.726013
-8.420000 -53.415886 -599.646362
-7.870000 -53.422859 -599.726013
-7.320000 -53.428085 -599.785828
-6.770000 -53.417629 -599.666260
-6.210000 -53.387623 -599.437988
-5.660000 -53.364960 -599.179016
-5.110000 -53.354500 -599.059448
-4.560000 -53.364960 -599.179016
-4.010000 -53.392849 -599.497803
-3.460000 -53.437675 -599.895386
-2.910000 -53.424603 -599.745972
-2.360000 -53.391106 -599.477844
-1.800000 -53.393723 -599.507751
-1.250000 -53.388493 -599.447937
-0.700000 -53.412399 -599.606506
-0.150000 -53.435932 -599.875488
0.400000 -53.458591 -600.134460
0.950000 -53.449005 -600.024902
1.510000 -53.456848 -600.114563
2.060000 -53.465565 -600.214172
2.610000 -53.480381 -600.383545
3.170000 -53.510014 -600.722229
3.720000 -53.533546 -600.991211
4.270000 -53.530930 -600.961304
4.820000 -53.513500 -600.762085
5.380000 -53.519600 -600.831787
5.930000 -53.529186 -600.941406
6.490000 -53.546619 -601.140625
7.040000 -53.564922 -601.349854
7.600000 -53.602398 -601.778198
8.150000 -53.598042 -601.728394
8.700000 -53.584969 -601.578979
9.260000 -53.591068 -601.648682
9.820000 -53.605885 -601.818054
10.370000 -53.616344 -601.937561
10.930000 -53.638130 -602.186646
11.490000 -53.659920 -602.435669
12.050000 -53.692169 -602.804260
12.610000 -53.709599 -603.003540
13.160000 -53.698269 -602.874023
13.710000 -53.693913 -602.824219
14.270000 -53.713959 -603.053345
14.830000 -53.729645 -603.232605
15.390000 -53.735748 -603.302368
15.950000 -53.757538 -603.551392
16.510000 -53.780197 -603.810425
17.070000 -53.778454 -603.790527
17.629999 -53.786297 -603.880188
18.190001 -53.806343 -604.109314
18.760000 -53.837719 -604.467896
19.320000 -53.866482 -604.796631
19.889999 -53.890011 -605.065613
20.450001 -53.896114 -605.135376
21.010000 -53.912674 -605.324646
21.580000 -53.933590 -605.563721
22.150000 -53.981899 -606.001160
22.730000 -54.027222 -606.519226
23.299999 -54.052498 -606.808105
23.860001 -54.060341 -606.897766
24.430000 -54.082130 -607.146790
25.000000 -54.104790 -607.405823
25.570000 -54.133553 -607.734558
26.139999 -54.153599 -607.963684
26.709999 -54.180614 -608.272522
27.290001 -54.206764 -608.571350
27.860001 -54.237267 -608.920044
28.430000 -54.258186 -609.159119
29.020000 -54.297405 -609.607422
29.600000 -54.330524 -609.985962
30.200001 -54.404606 -610.832703
30.780001 -54.436855 -611.201294
31.350000 -54.456902 -611.430420
31.930000 -54.480431 -611.699402
32.509998 -54.507450 -612.008240
33.090000 -54.542686 -612.296265
33.669998 -54.575806 -612.674805
34.250000 -54.599339 -612.943787
34.869999 -54.672550 -613.780579
35.470001 -54.734428 -614.487915
36.099998 -54.825073 -615.523926
-24.010000 -54.273571 -603.024414
-23.440001 -54.233105 -602.676636
-22.870001 -54.202599 -602.327942
-22.299999 -54.165123 -601.899597
-21.730000 -54.129387 -601.491150
-21.160000 -54.095398 -601.102661
-20.600000 -54.070122 -600.813782
-20.040001 -54.042233 -600.494995
-19.480000 -54.020443 -600.245911
-18.920000 -53.997784 -599.986938
-18.360001 -53.989941 -599.897278
-17.809999 -53.982967 -599.817566
-17.250000 -53.976868 -599.747803
-16.700001 -53.970764 -599.678101
-16.150000 -53.978607 -599.767761
-15.590000 -53.963791 -599.598389
-15.040000 -53.953335 -599.478882
-14.480000 -53.937645 -599.299561
-13.930000 -53.934158 -599.259705
-13.380000 -53.925446 -599.160095
-12.830000 -53.919342 -599.090332
-12.280000 -53.932415 -599.239746
-11.730000 -53.946362 -599.399170
-11.180000 -53.975994 -599.737854
-10.640000 -53.992554 -599.927124
-10.080000 -53.977737 -599.757813
-9.530000 -53.955948 -599.508728
-8.970000 -53.937645 -599.299561
-8.420000 -53.936775 -599.289551
-7.870000 -53.937645 -599.299561
-7.320000 -53.936775 -599.289551
-6.770000 -53.940262 -599.329407
-6.210000 -53.935902 -599.279602
-5.660000 -53.913242 -599.020630
-5.110000 -53.891079 -598.882019
-4.560000 -53.891079 -598.882019
-4.010000 -53.917599 -599.070435
-3.460000 -53.951591 -599.458923
-2.910000 -53.982967 -599.817566
-2.360000 -53.962048 -599.578491
-1.800000 -53.948105 -599.419067
-1.250000 -53.948105 -599.419067
-0.700000 -53.948975 -599.429016
-0.150000 -53.970764 -599.678101
0.400000 -53.989941 -599.897278
0.950000 -54.012600 -600.156250
1.510000 -54.009987 -600.126404
2.060000 -54.008244 -600.106445
2.610000 -54.016087 -600.196106
3.160000 -54.035259 -600.415283
3.720000 -54.062279 -600.724121
4.270000 -54.095398 -601.102661
4.830000 -54.082325 -600.953247
5.380000 -54.064892 -600.753967
5.930000 -54.077095 -600.893433
6.490000 -54.086681 -601.003052
7.040000 -54.104984 -601.212219
7.600000 -54.132874 -601.531006
8.150000 -54.156406 -601.799988
8.710000 -54.146820 -601.690430
9.260000 -54.147690 -601.700378
9.820000 -54.163380 -601.879700
10.370000 -54.165993 -601.909546
10.930000 -54.192139 -602.208435
11.490000 -54.207829 -602.387756
12.050000 -54.230488 -602.646729
12.610000 -54.266598 -602.944763
13.160000 -54.270084 -602.984619
13.720000 -54.266598 -602.944763
14.280000 -54.280540 -603.104126
14.830000 -54.290131 -603.213684
15.390000 -54.310177 -603.442810
15.950000 -54.324120 -603.602234
16.510000 -54.337193 -603.751648
17.080000 -54.364212 -604.060486
17.639999 -54.372929 -604.160095
18.190001 -54.375542 -604.190002
18.760000 -54.402561 -604.498779
19.320000 -54.426094 -604.767761
19.889999 -54.461826 -605.176208
20.459999 -54.487103 -605.465088
21.020000 -54.489716 -605.494995
21.580000 -54.508018 -605.704224
22.160000 -54.545498 -606.132568
22.730000 -54.587330 -606.610718
23.309999 -54.636513 -607.058167
23.870001 -54.653072 -607.247437
24.440001 -54.664402 -607.376953
25.010000 -54.688805 -607.655884
25.580000 -54.718437 -607.994568
26.160000 -54.743713 -608.283447
26.730000 -54.778576 -608.681946
27.309999 -54.802979 -608.960876
27.879999 -54.823898 -609.199951
28.450001 -54.850918 -609.508789
29.040001 -54.898849 -610.056702
29.650000 -54.995098 -611.042053
30.250000 -55.056976 -611.749329
30.820000 -55.072666 -611.928650
31.389999 -55.090096 -612.127930
31.969999 -55.107529 -612.327148
32.529999 -55.108398 -612.337097
33.099998 -55.112759 -612.386902
33.689999 -55.160694 -612.934814
34.299999 -55.228676 -613.711853
-25.709999 -54.892075 -603.783447
-25.129999 -54.838909 -603.175720
-24.549999 -54.794460 -602.667664
-23.980000 -54.767441 -602.358887
-23.410000 -54.732578 -601.960388
-22.850000 -54.710789 -601.711304
-22.280001 -54.663349 -601.283813
-21.719999 -54.644176 -601.064697
-21.150000 -54.605827 -600.626343
-20.590000 -54.589268 -600.437073
-20.030001 -54.559635 -600.098389
-19.469999 -54.540462 -599.879211
-18.910000 -54.516056 -599.600281
-18.350000 -54.502113 -599.440857
-17.790001 -54.487297 -599.271545
-17.240000 -54.481194 -599.201782
-16.690001 -54.480324 -599.191833
-16.139999 -54.486423 -599.261536
-15.590000 -54.491653 -599.321350
-15.040000 -54.497753 -599.391052
-14.480000 -54.488167 -599.281494
-13.930000 -54.480324 -599.191833
-13.380000 -54.475967 -599.142029
-12.820000 -54.462021 -598.982605
-12.270000 -54.468121 -599.052368
-11.730000 -54.491653 -599.321350
-11.180000 -54.509087 -599.520569
-10.630000 -54.514313 -599.580322
-10.080000 -54.518673 -599.630188
-9.520000 -54.502113 -599.440857
-8.970000 -54.470737 -599.082275
-8.410000 -54.459408 -598.952759
-7.860000 -54.452435 -598.873047
-7.310000 -54.452435 -598.873047
-6.760000 -54.451561 -598.863098
-6.210000 -54.459408 -598.952759
-5.660000 -54.468121 -599.052368
-5.110000 -54.460278 -598.962708
-4.560000 -54.436745 -598.693726
-4.010000 -54.441105 -598.743530
-3.460000 -54.464634 -599.012512
-2.910000 -54.496010 -599.371155
-2.360000 -54.526516 -599.719788
-1.800000 -54.506470 -599.490662
-1.250000 -54.502113 -599.440857
-0.700000 -54.501240 -599.430908
-0.150000 -54.507343 -599.500671
0.400000 -54.528259 -599.739746
0.950000 -54.554405 -600.038574
1.510000 -54.575321 -600.277710
2.060000 -54.570095 -600.217896
2.610000 -54.563992 -600.148193
3.160000 -54.571838 -600.237854
3.720000 -54.591011 -600.456970
4.270000 -54.624130 -600.835571
4.830000 -54.651150 -601.144348
5.380000 -54.634590 -600.955078
5.930000 -54.626743 -600.865417
6.480000 -54.634590 -600.955078
7.040000 -54.643307 -601.054688
7.600000 -54.666836 -601.323669
8.150000 -54.704689 -601.641602
8.710000 -54.721249 -601.830872
9.260000 -54.718632 -601.800964
9.820000 -54.730835 -601.940430
10.370000 -54.742165 -602.069946
10.930000 -54.760468 -602.279175
11.490000 -54.769184 -602.378784
12.050000 -54.785744 -602.568054
12.610000 -54.810146 -602.846985
13.170000 -54.838909 -603.175720
13.720000 -54.838909 -603.175720
14.280000 -54.832806 -603.106018
14.840000 -54.846752 -603.265381
15.400000 -54.870285 -603.534363
15.960000 -54.884228 -603.693787
16.520000 -54.903404 -603.912903
17.080000 -54.925194 -604.161987
17.650000 -54.956944 -604.410156
18.209999 -54.970886 -604.569519
18.770000 -54.982220 -604.699036
19.330000 -55.002262 -604.928162
19.900000 -55.027538 -605.217041
20.459999 -55.053684 -605.515930
21.030001 -55.078960 -605.804810
21.600000 -55.093777 -605.974182
22.160000 -55.120796 -606.283020
22.740000 -55.160889 -606.741272
23.309999 -55.192265 -607.099854
23.889999 -55.245804 -607.597107
24.459999 -55.261494 -607.776428
25.030001 -55.279793 -607.985596
25.600000 -55.317272 -608.414001
26.180000 -55.347775 -608.762634
26.750000 -55.372177 -609.041565
27.320000 -55.395710 -609.310547
27.910000 -55.438419 -609.798706
28.500000 -55.502415 -610.415466
29.100000 -55.573013 -611.222351
29.680000 -55.613976 -611.690613
30.260000 -55.628792 -611.859924
30.820000 -55.629665 -611.869934
31.389999 -55.636635 -611.949585
31.950001 -55.640995 -611.999390
32.520000 -55.650581 -612.109009
33.110001 -55.697643 -612.646912
-26.270000 -55.468246 -603.943787
-25.670000 -55.365898 -602.888733
-25.100000 -55.335392 -602.540039
-24.520000 -55.282227 -601.932373
-23.950001 -55.253468 -601.603638
-23.389999 -55.230808 -601.344604
-22.820000 -55.199429 -600.985962
-22.260000 -55.178513 -600.746887
-21.700001 -55.151119 -600.548523
-21.129999 -55.113644 -600.120178
-20.580000 -55.104927 -600.020569
-20.020000 -55.086624 -599.811340
-19.450001 -55.055248 -599.452698
-18.889999 -55.033459 -599.203674
-18.340000 -55.019516 -599.044250
-17.780001 -55.006439 -598.894836
-17.230000 -55.002083 -598.845032
-16.680000 -54.995110 -598.765320
-16.120001 -54.991627 -598.725525
-15.570000 -54.995983 -598.775330
-15.030000 -55.005569 -598.884888
-14.480000 -55.013412 -598.974548
-13.930000 -55.025616 -599.114014
-13.380000 -55.027359 -599.133911
-12.830000 -55.026485 -599.123962
-12.280000 -55.025616 -599.114014
-11.730000 -55.034332 -599.213623
-11.170000 -55.018642 -599.034302
-10.620000 -55.016029 -599.004456
-10.070000 -55.036945 -599.243530
-9.520000 -55.033459 -599.203674
-8.960000 -55.001213 -598.835083
-8.410000 -54.987267 -598.675659
-7.860000 -54.975937 -598.546204
-7.310000 -54.971581 -598.496399
-6.760000 -54.977680 -598.566101
-6.210000 -54.984653 -598.645813
-5.660000 -54.988140 -598.685669
-5.110000 -55.000340 -598.825134
-4.560000 -54.982910 -598.625854
-4.000000 -54.976810 -598.556152
-3.450000 -54.991627 -598.725525
-2.900000 -55.012543 -598.964600
-2.360000 -55.053505 -599.432800
-1.800000 -55.078781 -599.721680
-1.250000 -55.063965 -599.552307
-0.700000 -55.055248 -599.452698
-0.150000 -55.049149 -599.382996
0.400000 -55.069195 -599.612122
0.950000 -55.084881 -599.791443
1.510000 -55.111900 -600.100220
2.060000 -55.136303 -600.379150
2.610000 -55.122360 -600.219788
3.160000 -55.114513 -600.130127
3.720000 -55.134560 -600.359253
4.270000 -55.155479 -600.598328
4.830000 -55.198559 -600.976013
5.380000 -55.230808 -601.344604
5.930000 -55.202915 -601.025818
6.480000 -55.189842 -600.876404
7.040000 -55.205532 -601.055725
7.590000 -55.219475 -601.215088
8.150000 -55.244751 -601.504028
8.710000 -55.273514 -601.832764
9.270000 -55.287457 -601.992126
9.820000 -55.281357 -601.922424
10.380000 -55.294430 -602.071838
10.930000 -55.307503 -602.221252
11.490000 -55.319706 -602.360718
12.050000 -55.333649 -602.520142
12.610000 -55.352825 -602.739258
13.170000 -55.396778 -603.126953
13.730000 -55.410721 -603.286316
14.280000 -55.409851 -603.276367
14.840000 -55.411594 -603.296265
15.400000 -55.435997 -603.575195
15.960000 -55.456043 -603.804321
16.520000 -55.471729 -603.983643
17.090000 -55.495262 -604.252625
17.650000 -55.517052 -604.501709
18.209999 -55.533611 -604.690979
18.770000 -55.544941 -604.820435
19.330000 -55.557144 -604.959961
19.900000 -55.599354 -605.327637
20.469999 -55.632473 -605.706177
21.040001 -55.653389 -605.945313
21.610001 -55.681278 -606.264099
22.180000 -55.707428 -606.562927
22.750000 -55.743160 -606.971375
23.330000 -55.785866 -607.459534
23.900000 -55.828075 -607.827209
24.480000 -55.866425 -608.265564
25.049999 -55.892570 -608.564392
25.629999 -55.921333 -608.893127
26.200001 -55.952709 -609.251770
26.780001 -55.977985 -609.540710
27.350000 -56.016708 -609.868530
27.950001 -56.089916 -610.705383
28.530001 -56.126526 -611.123779
29.110001 -56.158772 -611.492371
29.670000 -56.153542 -611.432556
30.230000 -56.141338 -611.293091
30.809999 -56.166615 -611.582031
31.379999 -56.180561 -611.741394
31.950001 -56.213184 -611.999512
-26.830000 -56.025242 -603.885071
-26.240000 -55.958630 -603.238403
-25.660000 -55.898491 -602.551025
-25.080000 -55.833622 -601.924255
-24.500000 -55.797016 -601.505859
-23.940001 -55.764771 -601.137268
-23.370001 -55.733395 -600.778687
-22.809999 -55.708118 -600.489746
-22.240000 -55.676743 -600.131104
-21.680000 -55.644993 -599.882935
-21.110001 -55.611870 -599.504395
-20.559999 -55.600540 -599.374878
-20.000000 -55.581367 -599.155762
-19.440001 -55.579624 -599.135803
-18.889999 -55.566551 -598.986389
-18.330000 -55.556091 -598.866821
-17.780001 -55.542149 -598.707458
-17.219999 -55.526459 -598.528137
-16.670000 -55.517742 -598.428528
-16.120001 -55.509899 -598.338867
-15.560000 -55.510773 -598.348816
-15.020000 -55.515999 -598.408569
-14.470000 -55.537788 -598.657654
-13.930000 -55.556091 -598.866821
-13.380000 -55.572651 -599.056091
-12.830000 -55.577007 -599.105896
-12.270000 -55.566551 -598.986389
-11.720000 -55.540405 -598.687500
-11.160000 -55.526459 -598.528137
-10.610000 -55.527328 -598.538086
-10.060000 -55.531689 -598.587891
-9.520000 -55.545631 -598.747314
-8.960000 -55.541275 -598.697510
-8.410000 -55.519485 -598.448425
-7.860000 -55.503799 -598.269104
-7.300000 -55.489479 -598.220154
-6.750000 -55.487736 -598.200256
-6.210000 -55.512512 -598.368713
-5.660000 -55.519485 -598.448425
-5.110000 -55.523846 -598.498230
-4.560000 -55.530815 -598.577942
-4.000000 -55.531689 -598.587891
-3.450000 -55.527328 -598.538086
-2.900000 -55.547375 -598.767212
-2.350000 -55.566551 -598.986389
-1.800000 -55.604900 -599.424683
-1.250000 -55.623203 -599.633911
-0.700000 -55.621456 -599.613953
-0.150000 -55.612743 -599.514343
0.400000 -55.613613 -599.524353
0.950000 -55.628429 -599.693665
1.510000 -55.646732 -599.902893
2.060000 -55.681973 -600.190918
2.610000 -55.695045 -600.340332
3.160000 -55.683716 -600.210815
3.720000 -55.689816 -600.280579
4.270000 -55.707245 -600.479797
4.830000 -55.729904 -600.738831
5.380000 -55.780457 -601.316589
5.940000 -55.790916 -601.436157
6.490000 -55.759541 -601.077515
7.040000 -55.755180 -601.027710
7.590000 -55.769127 -601.187073
8.150000 -55.791786 -601.446106
8.710000 -55.812702 -601.685181
9.270000 -55.835365 -601.944214
9.820000 -55.857529 -602.082825
10.380000 -55.857529 -602.082825
10.930000 -55.872345 -602.252136
11.490000 -55.879318 -602.331848
12.050000 -55.896748 -602.531067
12.610000 -55.915051 -602.740295
13.170000 -55.937714 -602.999329
13.730000 -55.978676 -603.467529
14.290000 -55.982162 -603.507385
14.840000 -55.983032 -603.517334
15.410000 -55.999592 -603.706604
15.960000 -56.012665 -603.856018
16.530001 -56.047031 -604.134094
17.090000 -56.065334 -604.343323
17.650000 -56.085381 -604.572388
18.219999 -56.103683 -604.781616
18.780001 -56.128960 -605.070496
19.340000 -56.136803 -605.160156
19.910000 -56.161205 -605.439087
20.480000 -56.204288 -605.816772
21.049999 -56.234791 -606.165466
21.620001 -56.271397 -606.583862
22.190001 -56.303642 -606.952454
22.760000 -56.330662 -607.261292
23.340000 -56.379845 -607.708679
23.920000 -56.423424 -608.206787
24.500000 -56.474846 -608.794556
25.070000 -56.493149 -609.003723
25.650000 -56.546688 -609.500977
26.230000 -56.571960 -609.789856
26.820000 -56.631229 -610.467285
27.400000 -56.661732 -610.815918
27.969999 -56.681778 -611.045044
28.530001 -56.685265 -611.084900
29.090000 -56.666962 -610.875732
29.639999 -56.647785 -610.656555
30.260000 -56.762337 -611.851135
-26.790001 -56.507782 -603.089966
-26.209999 -56.452499 -602.572815
-25.629999 -56.392361 -601.885437
-25.059999 -56.355759 -601.467041
-24.480000 -56.301346 -600.959839
-23.920000 -56.269970 -600.601196
-23.350000 -56.244694 -600.312317
-22.790001 -56.218548 -600.013489
-22.219999 -56.171982 -599.595947
-21.660000 -56.143219 -599.267212
-21.090000 -56.112713 -598.918518
-20.540001 -56.096153 -598.729248
-19.980000 -56.094414 -598.709290
-19.430000 -56.087440 -598.629639
-18.879999 -56.086567 -598.619690
-18.330000 -56.090054 -598.659485
-17.780001 -56.085697 -598.609680
-17.219999 -56.070007 -598.430359
-16.660000 -56.045605 -598.151428
-16.110001 -56.026054 -598.042725
-15.560000 -56.022568 -598.002869
-15.010000 -56.044731 -598.141479
-14.460000 -56.061291 -598.330750
-13.920000 -56.080467 -598.549927
-13.370000 -56.101383 -598.789001
-12.820000 -56.103127 -598.808960
-12.270000 -56.083080 -598.579834
-11.710000 -56.071751 -598.450317
-11.160000 -56.053448 -598.241089
-10.610000 -56.045605 -598.151428
-10.060000 -56.048218 -598.181335
-9.510000 -56.051704 -598.221191
-8.960000 -56.069138 -598.420410
-8.410000 -56.067394 -598.400513
-7.850000 -56.043861 -598.131531
-7.300000 -56.018211 -597.953064
-6.750000 -56.020824 -597.982971
-6.200000 -56.027798 -598.062683
-5.650000 -56.052578 -598.231140
-5.100000 -56.058678 -598.300903
-4.550000 -56.070007 -598.430359
-4.000000 -56.073494 -598.470215
-3.450000 -56.077850 -598.520020
-2.900000 -56.079594 -598.539978
-2.350000 -56.097027 -598.739197
-1.800000 -56.117073 -598.968323
-1.250000 -56.158035 -599.436523
-0.700000 -56.177212 -599.655701
-0.150000 -56.171108 -599.585999
0.400000 -56.168495 -599.556091
0.950000 -56.166752 -599.536133
1.510000 -56.179825 -599.685608
2.060000 -56.213318 -599.953674
2.610000 -56.233364 -600.182800
3.160000 -56.235107 -600.202759
3.720000 -56.240337 -600.262512
4.270000 -56.239464 -600.252563
4.820000 -56.272583 -600.631104
5.380000 -56.301346 -600.959839
5.940000 -56.347912 -601.377380
6.490000 -56.347912 -601.377380
7.040000 -56.319649 -601.169067
7.600000 -56.323135 -601.208923
8.150000 -56.344425 -601.337524
8.710000 -56.362728 -601.546753
9.270000 -56.392361 -601.885437
9.820000 -56.417637 -602.174316
10.380000 -56.428097 -602.293884
10.930000 -56.424610 -602.254028
11.490000 -56.437683 -602.403442
12.050000 -56.458603 -602.642517
12.610000 -56.465572 -602.722229
13.170000 -56.499065 -602.990356
13.730000 -56.527828 -603.319092
14.290000 -56.560078 -603.687683
14.850000 -56.567047 -603.767395
15.410000 -56.569664 -603.797241
15.970000 -56.585350 -603.976563
16.530001 -56.601040 -604.155884
17.090000 -56.627186 -604.454773
17.660000 -56.661552 -604.732788
18.219999 -56.682468 -604.971924
18.790001 -56.706001 -605.240845
19.360001 -56.735634 -605.579590
19.920000 -56.751324 -605.758911
20.490000 -56.795277 -606.146545
21.059999 -56.826653 -606.505188
21.629999 -56.863255 -606.923584
22.200001 -56.889404 -607.222412
22.780001 -56.926006 -607.640808
23.360001 -56.985649 -608.207764
23.950001 -57.054501 -608.994751
24.530001 -57.103683 -609.442200
25.110001 -57.133316 -609.780884
25.680000 -57.161205 -610.099670
26.270000 -57.207397 -610.627686
26.840000 -57.223087 -610.807007
27.410000 -57.251350 -611.015320
27.980000 -57.274014 -611.274353
28.549999 -57.276627 -611.304199
-27.350000 -57.055691 -603.042053
-26.760000 -56.998165 -602.384521
-26.180000 -56.929810 -601.717957
-25.600000 -56.869675 -601.030579
-25.030001 -56.847885 -600.781555
-24.459999 -56.806545 -600.423767
-23.900000 -56.783886 -600.164795
-23.340000 -56.761227 -599.905762
-22.770000 -56.732464 -599.577026
-22.209999 -56.687641 -599.179382
-21.639999 -56.662365 -598.890503
-21.080000 -56.636219 -598.591675
-20.530001 -56.620529 -598.412354
-19.969999 -56.603100 -598.213074
-19.420000 -56.596996 -598.143372
-18.860001 -56.596127 -598.133423
-18.320000 -56.600483 -598.183228
-17.770000 -56.614429 -598.342590
-17.219999 -56.614429 -598.342590
-16.660000 -56.598740 -598.163269
-16.110001 -56.587410 -598.033752
-15.560000 -56.567860 -597.925049
-15.000000 -56.560890 -597.845398
-14.460000 -56.603100 -598.213074
-13.920000 -56.624016 -598.452209
-13.370000 -56.617916 -598.382446
-12.810000 -56.617916 -598.382446
-12.270000 -56.627502 -598.492004
-11.710000 -56.618786 -598.392395
-11.150000 -56.569607 -597.945007
-10.600000 -56.553043 -597.755737
-10.050000 -56.553917 -597.765686
-9.500000 -56.560890 -597.845398
-8.950000 -56.563503 -597.875244
-8.410000 -56.595257 -598.123413
-7.860000 -56.593510 -598.103516
-7.300000 -56.573963 -597.994812
-6.750000 -56.559147 -597.825439
-6.200000 -56.563503 -597.875244
-5.650000 -56.574833 -598.004761
-5.100000 -56.599613 -598.173279
-4.550000 -56.610943 -598.302734
-4.000000 -56.618786 -598.392395
-3.450000 -56.624889 -598.462158
-2.900000 -56.630989 -598.531860
-2.350000 -56.632732 -598.551819
-1.800000 -56.657135 -598.830750
-1.250000 -56.686768 -599.169434
-0.700000 -56.724621 -599.487366
-0.150000 -56.746410 -599.736389
0.400000 -56.742050 -599.686584
0.950000 -56.736820 -599.626831
1.510000 -56.734207 -599.596924
2.060000 -56.755997 -599.846008
2.610000 -56.769939 -600.005371
3.160000 -56.791729 -600.254395
3.720000 -56.796089 -600.304260
4.270000 -56.798702 -600.334106
4.820000 -56.814388 -600.513428
5.380000 -56.851372 -600.821411
5.930000 -56.863571 -600.960876
6.490000 -56.904537 -601.429077
7.050000 -56.904537 -601.429077
7.600000 -56.898434 -601.359314
8.150000 -56.896690 -601.339417
8.710000 -56.918480 -601.588440
9.270000 -56.940269 -601.837524
9.830000 -56.985966 -602.245056
10.380000 -57.002525 -602.434326
10.940000 -57.002525 -602.434326
11.500000 -57.012981 -602.553894
12.050000 -57.026058 -602.703308
12.610000 -57.045231 -602.922485
13.170000 -57.053074 -603.012146
13.730000 -57.079224 -603.310974
14.290000 -57.113586 -603.589050
14.860000 -57.139732 -603.887939
15.410000 -57.147579 -603.977600
15.970000 -57.152805 -604.037354
16.540001 -57.183311 -604.386047
17.100000 -57.209457 -604.684875
17.670000 -57.226891 -604.884094
18.230000 -57.263000 -605.182129
18.799999 -57.299603 -605.600525
19.370001 -57.321392 -605.849548
19.930000 -57.344051 -606.108582
20.500000 -57.386265 -606.476257
21.080000 -57.428097 -606.954468
21.650000 -57.455990 -607.273254
22.219999 -57.505169 -607.720642
22.799999 -57.549618 -608.228699
23.400000 -57.637150 -609.114441
23.980000 -57.685959 -609.672302
24.559999 -57.725178 -610.120605
25.139999 -57.771744 -610.538147
25.719999 -57.798763 -610.846985
26.299999 -57.837982 -611.295227
26.870001 -57.865871 -611.614014
27.450001 -57.903725 -611.931946
-28.459999 -57.609200 -602.943420
-27.879999 -57.553917 -602.426270
-27.299999 -57.512955 -601.958069
-26.719999 -57.460285 -601.470764
-26.150000 -57.411480 -600.912903
-25.580000 -57.379230 -600.544312
-25.010000 -57.334408 -600.146729
-24.440001 -57.294315 -599.688477
-23.879999 -57.278629 -599.509155
-23.309999 -57.255966 -599.250122
-22.760000 -57.230316 -599.071716
-22.200001 -57.218987 -598.942200
-21.639999 -57.189354 -598.603516
-21.070000 -57.159721 -598.264771
-20.510000 -57.138805 -598.025696
-19.959999 -57.112282 -597.837280
-19.400000 -57.103565 -597.737671
-18.850000 -57.094852 -597.638062
-18.299999 -57.095722 -597.648010
-17.760000 -57.112282 -597.837280
-17.209999 -57.135319 -597.985840
-16.660000 -57.142288 -598.065552
-16.110001 -57.137932 -598.015747
-15.560000 -57.131832 -597.945984
-15.010000 -57.132702 -597.955933
-14.460000 -57.145775 -598.105408
-13.910000 -57.135319 -597.985840
-13.360000 -57.118382 -597.907043
-12.810000 -57.133575 -597.965942
-12.260000 -57.150135 -598.155212
-11.710000 -57.157978 -598.244873
-11.150000 -57.119255 -597.916992
-10.600000 -57.081779 -597.488647
-10.050000 -57.072189 -597.379028
-9.500000 -57.078293 -597.448792
-8.950000 -57.088749 -597.568298
-8.400000 -57.098335 -597.677917
-7.850000 -57.117512 -597.897034
-7.300000 -57.142288 -598.065552
-6.750000 -57.105309 -597.757568
-6.200000 -57.105309 -597.757568
-5.650000 -57.117512 -597.897034
-5.100000 -57.137062 -598.005798
-4.550000 -57.151878 -598.175110
-4.000000 -57.156235 -598.224915
-3.450000 -57.171051 -598.394287
-2.900000 -57.173664 -598.424194
-2.350000 -57.184998 -598.553650
-1.800000 -57.194584 -598.663269
-1.250000 -57.213757 -598.882446
-0.700000 -57.248123 -599.160461
-0.150000 -57.278629 -599.509155
0.400000 -57.303032 -599.788086
0.950000 -57.289959 -599.638672
1.510000 -57.286472 -599.598816
2.060000 -57.300419 -599.758179
2.610000 -57.313492 -599.907654
3.160000 -57.330051 -600.096924
3.720000 -57.349224 -600.316040
4.270000 -57.353580 -600.365906
4.820000 -57.372257 -600.464600
5.380000 -57.386204 -600.624023
5.930000 -57.407993 -600.873047
6.490000 -57.435013 -601.181885
7.050000 -57.462902 -601.500671
7.600000 -57.468132 -601.560425
8.160000 -57.466389 -601.540527
8.710000 -57.483322 -601.619324
9.270000 -57.501625 -601.828552
9.830000 -57.524284 -602.087524
10.390000 -57.557404 -602.466125
10.940000 -57.571350 -602.625488
11.500000 -57.571350 -602.625488
12.060000 -57.583549 -602.764954
12.610000 -57.606586 -602.913513
13.170000 -57.626633 -603.142639
13.730000 -57.642319 -603.321960
14.290000 -57.664108 -603.570984
14.860000 -57.684155 -603.800110
15.420000 -57.701588 -603.999390
15.980000 -57.734207 -604.257507
16.540001 -57.752510 -604.466736
17.110001 -57.775173 -604.725708
17.670000 -57.810905 -605.134155
18.240000 -57.847885 -605.442139
18.809999 -57.867062 -605.661255
19.379999 -57.901051 -606.049805
19.950001 -57.942013 -606.518005
20.520000 -57.985096 -606.895691
21.090000 -58.020828 -607.304138
21.670000 -58.053947 -607.682678
22.250000 -58.111847 -608.229736
22.830000 -58.169369 -608.887207
23.420000 -58.234238 -609.513916
23.990000 -58.263000 -609.842651
24.590000 -58.362732 -610.867859
25.190001 -58.447647 -611.723755
25.760000 -58.458107 -611.843262
26.320000 -58.457233 -611.833313
-29.020000 -58.178898 -603.144531
-28.430000 -58.106560 -602.317688
-27.850000 -58.047791 -601.760681
-27.270000 -57.997238 -601.182861
-26.690001 -57.941956 -600.665710
-26.110001 -57.894020 -600.117859
-25.540001 -57.852680 -599.760071
-24.980000 -57.826534 -599.461243
-24.410000 -57.791672 -599.062744
-23.850000 -57.765152 -598.874329
-23.290001 -57.744232 -598.635254
-22.740000 -57.733776 -598.515686
-22.180000 -57.721573 -598.376221
-21.620001 -57.708500 -598.226807
-21.070000 -57.698914 -598.117249
-20.510000 -57.680611 -597.908020
-19.950001 -57.648857 -597.659851
-19.400000 -57.631428 -597.460632
-18.840000 -57.622711 -597.360962
-18.290001 -57.620098 -597.331116
-17.740000 -57.627071 -597.410828
-17.200001 -57.641014 -597.570190
-16.650000 -57.656704 -597.749512
-16.110001 -57.679741 -597.898071
-15.560000 -57.689327 -598.007629
-15.010000 -57.688454 -597.997681
-14.450000 -57.652344 -597.699707
-13.900000 -57.634045 -597.490479
-13.350000 -57.633171 -597.480530
-12.800000 -57.631428 -597.460632
-12.250000 -57.642757 -597.590088
-11.700000 -57.654961 -597.729553
-11.150000 -57.661060 -597.799316
-10.600000 -57.629684 -597.440674
-10.040000 -57.613998 -597.261353
-9.490000 -57.612255 -597.241455
-8.940000 -57.613125 -597.251404
-8.400000 -57.627941 -597.420776
-7.850000 -57.647987 -597.649902
-7.300000 -57.661060 -597.799316
-6.750000 -57.665421 -597.849121
-6.200000 -57.657574 -597.759460
-5.650000 -57.662804 -597.819214
-5.100000 -57.679741 -597.898071
-4.550000 -57.685841 -597.967773
-4.000000 -57.703270 -598.167053
-3.450000 -57.715473 -598.306519
-2.900000 -57.723316 -598.396179
-2.350000 -57.739876 -598.585449
-1.800000 -57.744232 -598.635254
-1.250000 -57.756435 -598.774719
-0.700000 -57.769508 -598.924133
-0.150000 -57.807362 -599.242065
0.400000 -57.838737 -599.600708
0.950000 -57.854424 -599.780029
1.510000 -57.850941 -599.740173
2.060000 -57.850941 -599.740173
2.610000 -57.860527 -599.849731
3.160000 -57.877087 -600.039001
3.720000 -57.904476 -600.237366
4.270000 -57.921909 -600.436646
4.820000 -57.921040 -600.426636
5.380000 -57.932369 -600.556152
5.930000 -57.949799 -600.755371
6.490000 -57.968102 -600.964600
7.050000 -58.007698 -601.302429
7.600000 -58.045174 -601.730774
8.160000 -58.044304 -601.720825
8.710000 -58.035587 -601.621216
9.270000 -58.049534 -601.780579
9.830000 -58.073936 -602.059570
10.380000 -58.110043 -602.357544
10.950000 -58.143162 -602.736084
11.500000 -58.150135 -602.815796
12.060000 -58.151878 -602.835693
12.620000 -58.169312 -603.034912
13.180000 -58.192841 -603.303894
13.740000 -58.212391 -603.412598
14.300000 -58.228951 -603.601929
14.860000 -58.257713 -603.930664
15.420000 -58.275143 -604.129883
15.980000 -58.290833 -604.309204
16.549999 -58.331299 -604.656982
17.110001 -58.360931 -604.995728
17.680000 -58.388821 -605.314453
18.250000 -58.424057 -605.602478
18.820000 -58.459789 -606.010925
19.389999 -58.499012 -606.459229
19.959999 -58.546452 -606.886719
20.540001 -58.583057 -607.305115
21.110001 -58.620533 -607.733521
21.680000 -58.665356 -608.131104
22.270000 -58.726364 -608.828430
22.850000 -58.782520 -609.355530
23.420000 -58.798210 -609.534851
24.000000 -58.856106 -610.081909
-28.969999 -58.627445 -601.960938
-28.389999 -58.569550 -601.413879
-27.809999 -58.532944 -600.995483
-27.240000 -58.483761 -600.548096
-26.660000 -58.428852 -599.920471
-26.090000 -58.386642 -599.552734
-25.520000 -58.347424 -599.104431
-24.959999 -58.323021 -598.825500
-24.389999 -58.281681 -598.467773
-23.830000 -58.252922 -598.139038
-23.270000 -58.241592 -598.009521
-22.719999 -58.235489 -597.939758
-22.160000 -58.204609 -597.701599
-21.600000 -58.197639 -597.621887
-21.059999 -58.205482 -597.711548
-20.510000 -58.220673 -597.770447
-19.959999 -58.205482 -597.711548
