1426
131.619995 30.372845 -621.562378
132.160004 30.360765 -621.471008
132.729996 30.367241 -621.511719
133.309998 30.363754 -621.551575
133.869995 30.367241 -621.511719
134.380005 30.357401 -621.279968
134.979996 30.363380 -621.441101
135.559998 30.368984 -621.491821
136.130005 30.365498 -621.531616
136.660004 30.361261 -621.350586
137.149994 30.337599 -621.047363
137.639999 30.327385 -620.705200
138.190002 30.324394 -620.624634
138.699997 30.305464 -620.382019
139.210007 30.293011 -620.180176
139.740005 30.287903 -620.009094
140.279999 30.286655 -619.908569
140.809998 30.269842 -619.756531
141.330002 30.266479 -619.565552
141.910004 30.271212 -619.626160
142.419998 30.258757 -619.424316
142.960007 30.249292 -619.303040
143.520004 30.251905 -619.273132
144.039993 30.236837 -619.101196
144.580002 30.235592 -619.000671
145.100006 30.229612 -618.839539
145.649994 30.223137 -618.798828
146.179993 30.217157 -618.637695
146.710007 30.207691 -618.516418
147.259995 30.202959 -618.455750
147.789993 30.204327 -618.325378
148.320007 30.195734 -618.194153
148.869995 30.190130 -618.143494
149.429993 30.191874 -618.123535
149.970001 30.186270 -618.072876
150.559998 30.189259 -618.153442
151.130005 30.195734 -618.194153
151.690002 30.194862 -618.204102
152.250000 30.187515 -618.173340
152.789993 30.186270 -618.072876
153.320007 30.185022 -617.972351
153.970001 30.193495 -618.334473
154.570007 30.202959 -618.455750
155.130005 30.201216 -618.475708
155.649994 30.196980 -618.294617
156.139999 30.180664 -618.022156
156.720001 30.183655 -618.102722
157.330002 30.189632 -618.263855
157.949997 30.208563 -618.506470
158.589996 30.223137 -618.798828
159.259995 30.237211 -619.211609
159.940002 30.258635 -619.655212
160.639999 30.283049 -620.179321
161.429993 30.329380 -621.026550
162.100006 30.351675 -621.460144
162.789993 30.370483 -621.933594
163.419998 30.390285 -622.166199
164.029999 30.395393 -622.337341
164.639999 30.400499 -622.508423
165.229996 30.403490 -622.588989
165.820007 30.406479 -622.669556
166.389999 30.412954 -622.710266
167.000000 30.420677 -622.851501
167.610001 30.425783 -623.022583
168.289993 30.448952 -623.446228
169.000000 30.473364 -623.970337
61.500000 29.254122 -610.713623
62.020000 29.234818 -610.360596
62.430000 29.158468 -608.938538
62.869999 29.105782 -607.819702
63.360001 29.082239 -607.285583
63.869999 29.057331 -606.881897
64.410004 29.048737 -606.750610
64.940002 29.038897 -606.518921
65.459999 29.032543 -606.247314
65.989998 29.015732 -606.095276
66.529999 29.008009 -605.954041
67.070000 29.008505 -605.833618
67.620003 29.007633 -605.843628
68.169998 29.007633 -605.843628
68.730003 29.011496 -605.914185
69.300003 29.017473 -606.075317
69.879997 29.029057 -606.287170
70.449997 29.042383 -606.479065
71.059998 29.069410 -606.973267
71.760002 29.122473 -608.202576
72.389999 29.159836 -608.808167
73.000000 29.180387 -609.261658
73.550003 29.182131 -609.241760
74.110001 29.187735 -609.292419
74.690002 29.189356 -609.503357
75.269997 29.203554 -609.685303
75.809998 29.198820 -609.624634
76.400002 29.214266 -609.907043
76.940002 29.213018 -609.806580
77.489998 29.207415 -609.755920
78.099998 29.223234 -610.148743
78.650002 29.223234 -610.148743
79.239998 29.242165 -610.391357
79.830002 29.251133 -610.633057
80.400002 29.254122 -610.713623
80.989998 29.272181 -610.966125
81.540001 29.272181 -610.966125
82.099998 29.272181 -610.966125
82.669998 29.278160 -611.127258
83.239998 29.283764 -611.177979
83.790001 29.275545 -611.157166
84.339996 29.271685 -611.086548
84.900002 29.279032 -611.117310
85.500000 29.293604 -611.409729
86.059998 29.299208 -611.460388
86.599998 29.286257 -611.378967
87.190002 29.299583 -611.570862
87.779999 29.317642 -611.823364
88.349998 29.318888 -611.923889
88.919998 29.324492 -611.974548
89.480003 29.322748 -611.994446
90.080002 29.338194 -612.276917
90.650002 29.338568 -612.387329
91.190002 29.335579 -612.306763
91.750000 29.334707 -612.316711
92.370003 29.358746 -612.730408
92.949997 29.368210 -612.851685
93.540001 29.379793 -613.063538
94.139999 29.386147 -613.335083
94.769997 29.417532 -613.779541
95.360001 29.428244 -614.001282
96.000000 29.454399 -614.505493
96.620003 29.469347 -614.908325
97.260002 29.497246 -615.392639
97.919998 29.524649 -615.997314
98.570000 29.556408 -616.552185
99.239998 29.590286 -617.197571
99.919998 29.618063 -617.912720
100.580002 29.651941 -618.558167
101.279999 29.691797 -619.364685
102.029999 29.745356 -620.473572
102.820000 29.820457 -621.795166
103.540001 29.860689 -622.712158
104.169998 29.884727 -623.125793
104.760002 29.886847 -623.216309
105.370003 29.904034 -623.478821
106.000000 29.919851 -623.871704
106.599998 29.934050 -624.053650
107.169998 29.925831 -624.032837
107.730003 29.927574 -624.012939
108.290001 29.930189 -623.983032
108.870003 29.928446 -624.002930
109.419998 29.925455 -623.922363
109.989998 29.925455 -623.922363
110.540001 29.922466 -623.841797
111.099998 29.919477 -623.761230
111.650002 29.914745 -623.700623
112.190002 29.907894 -623.549438
112.739998 29.898430 -623.428162
113.309998 29.905775 -623.458923
113.889999 29.909637 -623.529541
114.419998 29.898054 -623.317688
114.970001 29.894194 -623.247070
115.540001 29.893320 -623.257080
116.089996 29.883856 -623.135742
116.620003 29.878750 -622.964661
117.169998 29.868412 -622.853333
117.699997 29.862432 -622.692200
118.260002 29.858572 -622.621582
118.830002 29.864176 -622.672302
119.379997 29.860315 -622.601685
119.980003 29.865423 -622.772766
120.540001 29.861563 -622.702148
121.089996 29.865919 -622.652344
121.650002 29.862930 -622.571777
122.199997 29.859070 -622.501221
122.769997 29.856455 -622.531067
123.339996 29.854712 -622.551025
123.910004 29.862930 -622.571777
124.459999 29.852592 -622.460449
125.010002 29.848732 -622.389893
125.559998 29.844000 -622.329224
126.110001 29.840137 -622.258606
126.639999 29.836775 -622.067627
127.180000 29.826437 -621.956299
127.739998 29.829924 -621.916443
128.270004 29.814854 -621.744446
128.830002 29.819212 -621.694641
129.380005 29.813608 -621.643982
129.919998 29.805885 -621.502747
130.470001 29.800282 -621.452087
131.029999 29.804640 -621.402283
131.580002 29.800777 -621.331665
132.130005 29.793430 -621.300903
132.710007 29.799908 -621.341614
133.270004 29.799908 -621.341614
133.820007 29.796045 -621.270996
134.389999 29.796917 -621.261047
134.940002 29.789570 -621.230286
135.500000 29.792185 -621.200439
136.080002 29.787827 -621.250244
136.679993 29.804640 -621.402283
137.229996 29.800777 -621.331665
137.720001 29.777987 -621.018494
138.210007 29.766899 -620.686279
138.710007 29.751455 -620.403809
139.250000 29.740248 -620.302490
139.750000 29.726547 -620.000122
140.289993 29.726171 -619.889648
140.809998 29.710232 -619.727661
141.360001 29.715462 -619.667908
141.889999 29.698648 -619.515869
142.460007 29.707739 -619.526672
142.970001 29.696156 -619.314880
143.520004 29.690552 -619.264160
144.070007 29.687563 -619.183594
144.600006 29.678968 -619.052368
145.130005 29.671246 -618.911133
145.649994 29.665268 -618.750000
146.190002 29.655802 -618.628723
146.740005 29.651070 -618.568115
147.289993 29.652811 -618.548157
147.839996 29.648081 -618.487549
148.369995 29.639486 -618.356262
148.919998 29.635626 -618.285706
149.460007 29.632635 -618.205139
150.020004 29.631763 -618.215088
150.600006 29.635626 -618.285706
151.160004 29.638241 -618.255798
151.729996 29.643845 -618.306458
152.270004 29.632635 -618.205139
152.809998 29.630518 -618.114563
153.369995 29.631390 -618.104614
153.990005 29.640358 -618.346313
154.559998 29.637743 -618.376221
155.100006 29.634752 -618.295654
155.660004 29.635626 -618.285706
156.190002 29.627903 -618.144470
156.789993 29.633883 -618.305603
157.360001 29.638615 -618.366272
158.020004 29.657047 -618.729248
158.690002 29.672867 -619.122131
159.330002 29.686567 -619.424438
160.029999 29.711851 -619.938599
160.759995 29.744860 -620.593994
161.460007 29.771887 -621.088196
162.169998 29.801903 -621.663025
162.800003 29.811743 -621.894775
163.449997 29.824572 -622.207092
164.029999 29.829306 -622.267700
164.660004 29.847364 -622.520264
165.240005 29.841263 -622.589966
165.820007 29.848610 -622.620728
166.410004 29.851601 -622.701294
167.009995 29.861065 -622.822571
167.580002 29.856707 -622.872375
168.210007 29.866547 -623.104126
168.929993 29.897434 -623.669006
60.959999 29.527145 -627.671936
61.439999 29.484299 -626.784851
61.970001 29.468479 -626.391968
61.540001 28.709084 -610.977112
62.020000 28.673086 -610.241150
62.430000 28.611431 -608.880615
62.860001 28.549656 -607.750916
63.369999 28.527361 -607.317322
63.889999 28.515404 -606.995056
64.410004 28.501701 -606.692749
64.940002 28.489246 -606.490906
65.449997 28.479904 -606.138733
65.989998 28.469566 -606.027405
66.529999 28.469193 -605.916931
67.070000 28.458855 -605.805603
67.629997 28.468321 -605.926941
68.190002 28.465706 -605.956787
68.750000 28.468695 -606.037354
69.320000 28.483765 -606.209351
69.889999 28.489744 -606.370483
70.510002 28.512413 -606.914490
71.110001 28.533836 -607.358093
71.720001 28.554388 -607.811584
72.330002 28.585773 -608.256042
72.930000 28.601591 -608.648865
73.480003 28.599850 -608.668823
74.050003 28.608442 -608.800049
74.639999 28.625629 -609.062561
75.209999 28.631609 -609.223694
75.760002 28.624262 -609.192932
76.339996 28.638458 -609.374878
76.889999 28.639332 -609.364929
77.440002 28.636341 -609.284302
78.040001 28.647429 -609.616577
78.589996 28.646557 -609.626526
79.160004 28.650417 -609.697144
79.769997 28.680931 -610.151489
80.349998 28.687780 -610.302673
80.930000 28.690273 -610.503662
81.500000 28.701483 -610.605042
82.040001 28.697620 -610.534424
82.620003 28.707087 -610.655701
83.209999 28.716055 -610.897400
83.769997 28.711697 -610.947205
84.309998 28.712194 -610.826843
84.860001 28.712194 -610.826843
85.449997 28.722906 -611.048584
86.010002 28.720291 -611.078491
86.580002 28.725023 -611.139099
87.169998 28.743954 -611.381714
87.739998 28.744329 -611.492126
88.309998 28.748190 -611.562744
88.879997 28.755913 -611.703979
89.449997 28.761517 -611.754639
90.019997 28.761890 -611.865112
90.599998 28.767870 -612.026245
91.160004 28.776960 -612.037048
91.730003 28.779078 -612.127563
92.330002 28.786303 -612.389221
92.919998 28.798758 -612.591064
93.500000 28.806480 -612.732300
94.089996 28.824539 -612.984802
94.709999 28.840359 -613.377686
95.309998 28.849327 -613.619385
95.940002 28.877226 -614.103638
96.570000 28.899521 -614.537231
97.180000 28.912350 -614.849548
97.830002 28.935019 -615.393616
98.510002 28.979235 -616.150330
99.139999 28.995052 -616.543213
99.820000 29.038397 -617.309937
100.489998 29.061440 -617.964417
101.180000 29.105656 -618.721130
101.900002 29.153234 -619.668884
102.660004 29.211523 -620.838440
103.400002 29.253002 -621.855896
104.089996 29.298960 -622.592712
104.690002 29.301453 -622.793701
105.290001 29.316523 -622.965698
105.910004 29.326736 -623.307861
106.550003 29.344299 -623.680847
107.139999 29.352894 -623.812073
107.699997 29.353764 -623.802124
108.250000 29.352518 -623.701599
108.800003 29.344795 -623.560425
109.349998 29.340935 -623.489807
109.919998 29.339191 -623.509705
110.470001 29.337946 -623.409241
111.040001 29.336203 -623.429138
111.580002 29.331966 -623.248108
112.120003 29.323374 -623.116821
112.669998 29.321255 -623.026306
113.209999 29.305313 -622.864319
113.769997 29.310543 -622.804565
114.339996 29.306185 -622.854370
114.900002 29.311415 -622.794556
115.459999 29.304939 -622.753845
116.029999 29.304068 -622.763794
116.580002 29.301949 -622.673279
117.129997 29.296345 -622.622620
117.680000 29.295099 -622.522095
118.220001 29.284761 -622.410767
118.739998 29.275793 -622.169067
119.339996 29.282644 -622.320251
119.900002 29.284388 -622.300354
120.470001 29.281773 -622.330200
121.050003 29.289120 -622.360962
121.589996 29.279655 -622.239685
122.150002 29.274052 -622.189026
122.730003 29.286131 -622.280396
123.279999 29.281399 -622.219788
123.870003 29.284388 -622.300354
124.430000 29.283516 -622.310303
124.989998 29.278784 -622.249634
125.529999 29.271061 -622.108459
126.080002 29.274548 -622.068604
126.629997 29.271559 -621.988037
127.169998 29.262964 -621.856812
127.709999 29.255241 -621.715576
128.250000 29.247520 -621.574341
128.820007 29.244905 -621.604248
129.380005 29.246649 -621.584351
129.919998 29.238054 -621.453064
130.449997 29.230333 -621.311890
131.000000 29.235561 -621.252075
131.539993 29.225225 -621.140747
132.110001 29.225225 -621.140747
132.669998 29.226097 -621.130798
133.240005 29.224354 -621.150757
133.820007 29.230829 -621.191467
134.360001 29.220493 -621.080139
134.910004 29.215759 -621.019470
135.470001 29.215759 -621.019470
136.050003 29.222237 -621.060181
136.619995 29.219622 -621.090088
137.210007 29.231701 -621.181519
137.759995 29.224354 -621.150757
138.300003 29.216633 -621.009521
138.779999 29.198198 -620.646545
139.259995 29.181507 -620.263611
139.759995 29.173410 -620.011963
140.279999 29.162699 -619.790161
140.809998 29.152363 -619.678833
141.360001 29.149372 -619.598267
141.919998 29.149372 -619.598267
142.470001 29.146383 -619.517700
142.990005 29.140404 -619.356567
143.539993 29.137415 -619.276001
144.100006 29.136543 -619.286011
144.619995 29.123217 -619.094116
145.119995 29.108644 -618.801697
145.660004 29.105656 -618.721130
146.199997 29.102665 -618.640564
146.779999 29.107397 -618.701233
147.300003 29.093201 -618.519287
147.850006 29.095816 -618.489380
148.380005 29.087221 -618.358154
148.949997 29.087221 -618.358154
149.500000 29.079874 -618.327393
150.039993 29.076014 -618.256775
150.610001 29.076883 -618.246826
151.179993 29.080746 -618.317444
151.770004 29.091082 -618.428772
152.289993 29.078627 -618.226929
152.820007 29.070034 -618.095642
153.369995 29.072649 -618.065796
153.979996 29.075142 -618.266785
154.580002 29.083735 -618.398010
155.119995 29.080746 -618.317444
155.669998 29.075142 -618.266785
156.220001 29.070410 -618.206116
156.830002 29.082863 -618.407959
157.490005 29.099554 -618.790894
158.130005 29.114126 -619.083252
158.779999 29.133432 -619.436279
159.410004 29.141529 -619.687927
160.110001 29.166813 -620.202087
160.830002 29.204178 -620.807678
161.539993 29.226847 -621.351746
162.199997 29.246153 -621.704773
162.839996 29.260723 -621.997131
163.419998 29.254623 -622.066833
164.050003 29.274426 -622.299500
164.630005 29.278286 -622.370056
165.270004 29.285513 -622.631714
165.820007 29.281651 -622.561096
166.399994 29.286383 -622.621765
166.990005 29.289373 -622.702332
167.589996 29.297966 -622.833557
168.199997 29.302202 -623.014587
168.889999 29.324497 -623.448181
59.250000 28.961432 -627.712769
59.820000 28.958443 -627.632202
60.299999 28.921202 -626.795776
60.830002 28.895044 -626.291626
61.360001 28.879227 -625.898743
61.880001 28.850456 -625.424438
62.400002 28.829905 -624.970886
61.590000 28.180359 -611.513062
62.000000 28.114843 -610.081909
62.389999 28.037745 -608.438965
62.860001 28.001747 -607.703003
63.380001 27.988047 -607.400635
63.889999 27.965752 -606.967041
64.419998 27.954168 -606.755249
64.949997 27.950806 -606.564209
65.480003 27.931875 -606.321655
66.000000 27.923779 -606.070007
66.540001 27.920788 -605.989441
67.099998 27.924648 -606.060059
67.660004 27.926767 -606.150574
68.209999 27.930252 -606.110718
68.779999 27.937975 -606.251953
69.349998 27.943083 -606.423035
69.930000 27.951180 -606.674683
70.510002 27.961891 -606.896484
71.089996 27.980822 -607.139038
71.690002 27.997513 -607.521973
72.309998 28.028400 -608.086792
72.879997 28.027905 -608.207214
73.440002 28.030022 -608.297729
74.010002 28.040359 -608.409058
74.589996 28.050200 -608.640808
75.160004 28.053188 -608.721375
75.699997 28.056673 -608.681519
76.300003 28.068632 -609.003784
76.839996 28.068258 -608.893311
77.389999 28.069130 -608.883362
78.000000 28.082333 -609.306152
78.559998 28.081463 -609.316101
79.120003 28.092670 -609.417480
79.739998 28.111479 -609.890869
80.309998 28.115339 -609.961487
80.870003 28.120943 -610.012207
81.449997 28.124308 -610.203186
82.010002 28.133398 -610.214050
82.570000 28.138130 -610.274658
83.169998 28.143614 -610.556213
83.730003 28.146603 -610.636780
84.279999 28.144485 -610.546265
84.830002 28.152704 -610.567078
85.430000 28.157314 -610.858582
86.010002 28.165909 -610.989807
86.550003 28.171137 -610.930054
87.139999 28.171886 -611.150940
87.709999 28.181353 -611.272217
88.279999 28.188700 -611.302979
88.860001 28.191193 -611.503967
89.419998 28.199411 -611.524780
90.010002 28.202774 -611.715820
90.580002 28.210499 -611.856995
91.129997 28.204893 -611.806335
91.699997 28.208754 -611.876953
92.279999 28.224695 -612.038940
92.900002 28.242256 -612.411865
93.480003 28.248236 -612.572998
94.059998 28.254215 -612.734131
94.669998 28.267916 -613.036499
95.279999 28.288965 -613.369629
95.879997 28.304409 -613.652039
96.510002 28.324089 -614.115479
97.129997 28.342524 -614.478516
97.750000 28.358341 -614.871338
98.430000 28.394337 -615.607300
99.059998 28.410156 -616.000183
99.739998 28.453499 -616.766846
100.430000 28.486881 -617.532715
101.099998 28.521629 -618.168152
101.790001 28.553268 -618.953918
102.550003 28.611559 -620.123413
103.269997 28.654406 -621.010498
103.959999 28.696005 -621.797119
104.650002 28.724653 -622.502319
105.250000 28.730633 -622.663452
105.830002 28.740097 -622.784729
106.449997 28.755543 -623.067139
107.080002 28.772232 -623.450073
107.669998 28.783440 -623.551453
108.220001 28.772232 -623.450073
108.750000 28.762392 -623.218323
109.309998 28.765007 -623.188477
109.849998 28.755543 -623.067139
110.419998 28.755543 -623.067139
110.970001 28.752552 -622.986572
111.529999 28.748692 -622.916016
112.059998 28.744455 -622.734924
112.610001 28.733248 -622.633606
113.180000 28.732374 -622.643555
113.720001 28.732000 -622.533081
114.279999 28.729012 -622.452515
114.820000 28.718674 -622.341187
115.389999 28.726892 -622.362000
115.989998 28.734615 -622.503174
116.529999 28.726023 -622.371948
117.099998 28.722534 -622.411804
117.639999 28.723904 -622.281433
118.190002 28.713568 -622.170105
118.720001 28.706717 -622.018921
119.290001 28.707588 -622.008972
119.849998 28.710203 -621.979065
120.449997 28.716183 -622.140198
120.989998 28.704102 -622.048828
121.550003 28.707588 -622.008972
122.110001 28.701984 -621.958252
122.669998 28.704597 -621.928406
123.250000 28.708460 -621.999023
123.830002 28.713192 -622.059631
124.379997 28.707588 -622.008972
124.930000 28.705469 -621.918457
125.480003 28.701609 -621.847839
126.029999 28.691273 -621.736511
126.599998 28.699492 -621.757324
127.169998 28.696877 -621.787170
127.720001 28.693888 -621.706604
128.240005 28.681433 -621.504761
128.800003 28.685789 -621.454956
129.369995 28.683174 -621.484863
129.910004 28.673710 -621.363525
130.479996 28.681057 -621.394287
131.020004 28.670721 -621.282959
131.559998 28.663870 -621.131836
132.130005 28.670345 -621.172546
132.669998 28.660009 -621.061218
133.250000 28.663870 -621.131836
133.809998 28.664742 -621.121826
134.369995 28.667356 -621.091980
134.929993 28.660881 -621.051270
135.460007 28.654030 -620.900085
136.039993 28.659634 -620.950745
136.580002 28.656645 -620.870178
137.139999 28.649298 -620.839417
137.750000 28.654406 -621.010498
138.309998 28.656149 -620.990601
138.869995 28.655275 -621.000549
139.380005 28.646309 -620.758850
139.820007 28.616291 -620.184082
140.320007 28.608194 -619.932373
140.839996 28.595739 -619.730530
141.399994 28.596611 -619.720581
141.949997 28.591879 -619.659912
142.470001 28.586771 -619.488831
143.020004 28.582039 -619.428223
143.550003 28.576059 -619.267090
144.100006 28.571327 -619.206421
144.630005 28.563604 -619.065186
145.160004 28.553268 -618.953918
145.699997 28.552893 -618.843445
146.259995 28.552893 -618.843445
146.809998 28.549904 -618.762878
147.309998 28.539192 -618.541077
147.850006 28.527985 -618.439697
148.410004 28.530598 -618.409851
148.949997 28.526737 -618.339233
149.520004 28.523251 -618.379089
150.110001 28.535332 -618.470459
150.639999 28.526737 -618.339233
151.229996 28.528854 -618.429749
151.779999 28.530598 -618.409851
152.360001 28.536203 -618.460510
152.860001 28.518145 -618.208008
153.429993 28.522877 -618.268616
154.009995 28.526737 -618.339233
154.600006 28.527985 -618.439697
155.169998 28.526241 -618.459656
155.729996 28.527111 -618.449707
156.309998 28.528358 -618.550171
156.960007 28.551149 -618.863342
157.580002 28.561863 -619.085144
158.220001 28.575563 -619.387451
158.860001 28.588392 -619.699768
159.529999 28.604212 -620.092651
160.279999 28.642822 -620.798706
160.929993 28.654779 -621.120972
161.589996 28.673212 -621.483948
162.259995 28.695507 -621.917542
162.869995 28.701487 -622.078674
163.460007 28.705347 -622.149292
164.050003 28.706594 -622.249817
164.600006 28.702732 -622.179199
165.220001 28.715187 -622.381042
165.809998 28.715563 -622.491516
166.389999 28.720295 -622.552124
166.949997 28.722038 -622.532227
167.570007 28.726274 -622.713257
168.160004 28.727522 -622.813782
168.809998 28.741222 -623.116089
169.580002 28.778090 -623.842102
58.119999 28.396591 -627.743652
58.630001 28.363585 -627.088318
59.150002 28.339172 -626.564209
59.689999 28.327213 -626.241943
60.189999 28.300682 -625.627258
60.740002 28.282625 -625.374756
61.270000 28.266806 -624.981873
61.810001 28.255718 -624.649658
62.200001 28.172146 -622.965942
61.680000 27.676170 -612.342285
62.060001 27.587862 -610.597961
62.389999 27.488094 -608.410950
62.869999 27.458574 -607.715698
63.389999 27.444874 -607.413391
63.910000 27.421209 -607.110168
64.440002 27.416973 -606.929077
64.970001 27.405392 -606.717285
65.500000 27.395552 -606.485535
66.029999 27.392185 -606.294495
66.580002 27.383097 -606.283691
67.139999 27.389572 -606.324402
67.690002 27.386957 -606.354309
68.239998 27.383966 -606.273743
68.790001 27.388700 -606.334351
69.349998 27.395176 -606.375061
69.910004 27.399036 -606.445679
70.489998 27.408005 -606.687378
71.080002 27.421705 -606.989746
71.680000 27.443130 -607.433289
72.279999 27.458948 -607.826172
72.849998 27.470158 -607.927551
73.419998 27.470531 -608.037964
73.989998 27.484730 -608.219910
74.559998 27.484234 -608.340332
75.120003 27.489838 -608.390991
75.680000 27.496313 -608.431702
76.260002 27.499678 -608.622742
76.809998 27.500547 -608.612793
77.360001 27.494944 -608.562134
77.970001 27.518982 -608.975769
78.529999 27.524586 -609.026428
79.089996 27.520229 -609.076294
79.699997 27.543394 -609.499878
80.279999 27.557592 -609.681824
80.830002 27.557592 -609.681824
81.430000 27.569551 -610.004089
81.989998 27.567806 -610.024048
82.550003 27.572540 -610.084656
83.120003 27.581135 -610.215881
83.709999 27.590101 -610.457581
84.260002 27.586241 -610.387024
84.809998 27.590599 -610.337219
85.389999 27.595707 -610.508301
85.970001 27.606419 -610.730042
86.529999 27.605547 -610.740051
87.120003 27.614515 -610.981750
87.699997 27.620495 -611.142883
88.260002 27.622236 -611.122925
88.849998 27.640297 -611.375488
89.410004 27.635939 -611.425293
89.980003 27.640671 -611.485962
90.570000 27.651382 -611.707703
91.129997 27.649639 -611.727661
91.699997 27.653500 -611.798218
92.260002 27.659975 -611.838928
92.870003 27.671062 -612.171204
93.449997 27.684387 -612.363098
94.019997 27.688250 -612.433655
94.639999 27.704067 -612.826538
95.250000 27.724245 -613.169617
95.849998 27.734085 -613.401367
96.459999 27.747786 -613.703735
97.099998 27.778675 -614.268555
97.699997 27.781166 -614.469543
98.349998 27.808571 -615.074219
99.010002 27.838587 -615.649048
99.639999 27.860010 -616.092590
100.360001 27.905846 -617.060242
101.029999 27.941465 -617.685730
101.699997 27.971857 -618.370972
102.459999 28.021931 -619.519714
103.160004 28.063528 -620.306335
103.870003 28.105503 -621.203430
104.559998 28.134153 -621.908630
105.209999 28.162052 -622.392883
105.800003 28.167158 -622.563965
106.379997 28.171021 -622.634583
106.970001 28.178741 -622.775818
107.599998 28.199789 -623.108887
108.190002 28.199293 -623.229309
108.720001 28.194185 -623.058228
109.260002 28.189079 -622.887085
109.820000 28.182604 -622.846375
110.370003 28.173138 -622.725098
110.930000 28.176624 -622.685242
111.480003 28.171892 -622.624634
112.029999 28.170645 -622.524109
112.599998 28.169773 -622.534058
113.129997 28.156446 -622.342224
113.680000 28.154329 -622.251648
114.220001 28.146606 -622.110474
114.769997 28.144489 -622.019958
115.339996 28.142746 -622.039856
115.930000 28.153084 -622.151184
116.500000 28.149597 -622.191040
117.070000 28.150469 -622.181091
117.610001 28.148352 -622.090515
118.169998 28.142746 -622.039856
118.709999 28.144985 -621.899536
119.239998 28.129045 -621.737488
119.830002 28.141125 -621.828918
120.389999 28.134649 -621.788208
120.949997 28.138136 -621.748352
121.489998 28.126057 -621.656921
122.059998 28.126926 -621.646973
122.629997 28.132532 -621.697632
123.199997 28.134275 -621.677734
123.769997 28.130789 -621.717590
124.330002 28.131660 -621.707642
124.900002 28.130789 -621.717590
125.459999 28.134275 -621.677734
126.019997 28.126926 -621.646973
126.570000 28.122194 -621.586304
127.129997 28.123066 -621.576355
127.709999 28.128670 -621.627075
128.259995 28.125681 -621.546509
128.789993 28.118830 -621.395325
129.330002 28.111980 -621.244141
129.899994 28.111109 -621.254089
130.460007 28.112852 -621.234192
131.039993 28.116713 -621.304810
131.559998 28.106001 -621.083008
132.089996 28.090059 -620.921021
132.660004 28.096537 -620.961731
133.229996 28.095663 -620.971680
133.800003 28.102140 -621.012390
134.389999 28.100773 -621.142761
134.910004 28.090933 -620.911011
135.440002 28.083210 -620.769836
135.990005 28.080219 -620.689270
136.559998 28.085823 -620.739929
137.139999 28.090557 -620.800598
137.679993 28.080219 -620.689270
138.229996 28.075487 -620.628601
138.830002 28.083210 -620.769836
139.410004 28.086199 -620.850403
139.970001 28.090557 -620.800598
140.440002 28.064775 -620.406860
140.919998 28.048958 -620.013977
141.440002 28.042107 -619.862793
141.949997 28.032267 -619.631042
142.500000 28.027534 -619.570435
143.029999 28.023298 -619.389343
143.580002 28.015951 -619.358582
144.119995 28.016447 -619.238159
144.630005 28.004864 -619.026367
145.149994 27.992409 -618.824524
145.720001 27.998884 -618.865234
146.270004 27.994152 -618.804565
146.789993 27.979082 -618.632629
147.360001 27.986431 -618.663391
147.889999 27.976093 -618.552063
148.429993 27.975719 -618.441589
149.000000 27.980452 -618.502258
149.570007 27.979580 -618.512207
150.119995 27.974848 -618.451538
150.699997 27.978708 -618.522156
151.250000 27.972233 -618.481445
151.830002 27.975222 -618.562012
152.419998 27.977341 -618.652527
152.929993 27.974848 -618.451538
153.490005 27.973976 -618.461548
154.039993 27.970116 -618.390930
154.639999 27.977837 -618.532104
155.199997 27.976093 -618.552063
155.800003 27.982944 -618.703247
156.410004 27.988052 -618.874329
157.020004 28.002249 -619.056274
157.699997 28.023672 -619.499817
158.350006 28.034760 -619.832031
158.990005 28.047588 -620.144348
159.660004 28.071627 -620.558044
160.360001 28.088692 -621.051392
161.009995 28.108870 -621.394470
161.669998 28.119083 -621.736633
162.289993 28.130667 -621.948425
162.889999 28.137518 -622.099609
163.449997 28.138390 -622.089661
164.000000 28.133656 -622.028992
164.619995 28.138763 -622.200134
165.220001 28.145615 -622.351257
165.809998 28.157694 -622.442688
166.360001 28.152090 -622.392029
166.960007 28.151592 -622.512451
167.550003 28.162802 -622.613770
168.160004 28.160561 -622.754150
168.759995 28.169155 -622.885376
169.429993 28.185846 -623.268311
58.020000 27.783796 -626.716370
58.549999 27.755898 -626.232117
59.060001 27.731110 -625.597534
59.590000 27.715290 -625.204651
60.119999 27.692995 -624.771057
60.650002 27.677177 -624.378174
61.169998 27.650148 -623.883911
61.720001 27.648903 -623.783447
61.669998 27.361059 -617.665100
61.700001 27.117804 -612.413879
62.160000 27.079315 -611.476990
62.439999 26.960737 -608.816528
62.910000 26.916525 -608.059753
63.430000 26.904566 -607.737488
63.939999 26.890490 -607.324707
64.480003 26.882769 -607.183533
65.000000 26.873798 -606.941833
65.540001 26.865206 -606.810547
66.059998 26.852377 -606.498230
66.589996 26.844654 -606.357056
67.139999 26.843409 -606.256531
67.690002 26.842537 -606.266479
68.239998 26.843409 -606.256531
68.800003 26.839050 -606.306335
69.349998 26.845526 -606.347046
69.919998 26.850634 -606.518188
70.489998 26.857485 -606.669373
71.070000 26.863462 -606.830505
71.680000 26.896093 -607.375366
72.260002 26.901201 -607.546509
72.820000 26.903318 -607.637024
73.400002 26.914030 -607.858826
73.959999 26.917021 -607.939392
74.540001 26.928604 -608.151184
75.099998 26.935951 -608.181946
75.650002 26.928604 -608.151184
76.239998 26.944920 -608.423645
76.790001 26.938444 -608.382935
77.339996 26.945791 -608.413696
77.949997 26.963352 -608.786621
78.510002 26.967215 -608.857239
79.059998 26.968086 -608.847290
79.680000 26.989510 -609.290833
80.250000 26.988140 -609.421204
80.820000 26.995863 -609.562439
81.419998 27.009563 -609.864746
81.980003 27.017782 -609.885559
82.540001 27.014296 -609.925415
83.099998 27.018156 -609.996033
83.690002 27.027996 -610.227722
84.250000 27.035345 -610.258484
84.779999 27.027622 -610.117310
85.370003 27.035719 -610.368958
85.949997 27.040827 -610.540039
86.510002 27.040827 -610.540039
87.110001 27.056271 -610.822449
87.680000 27.058390 -610.913025
88.250000 27.070469 -611.004395
88.839996 27.076822 -611.276001
89.389999 27.079437 -611.246094
89.959999 27.084169 -611.306763
90.559998 27.099613 -611.589172
91.129997 27.102604 -611.669739
91.690002 27.101732 -611.679688
92.260002 27.102978 -611.780212
92.860001 27.118422 -612.062622
93.440002 27.122658 -612.243652
94.019997 27.132996 -612.354980
94.620003 27.146696 -612.657349
95.239998 27.166000 -613.010376
95.839996 27.171484 -613.291931
96.419998 27.179207 -613.433105
97.080002 27.205736 -614.047791
97.669998 27.225538 -614.280396
98.290001 27.235752 -614.622559
98.970001 27.271749 -615.358521
99.599998 27.295788 -615.772156
100.239998 27.311979 -616.275513
100.989998 27.364668 -617.394348
101.629997 27.392567 -617.878662
102.379997 27.442636 -619.027344
103.059998 27.473028 -619.712646
103.800003 27.525339 -620.721008
104.449997 27.541534 -621.224365
105.160004 27.579647 -622.050842
105.760002 27.592102 -622.252686
106.339996 27.595093 -622.333252
106.930000 27.601942 -622.484436
107.529999 27.608793 -622.635559
108.120003 27.615644 -622.786743
108.720001 27.628098 -622.988586
109.279999 27.624237 -622.918030
109.809998 27.611782 -622.716125
110.349998 27.603189 -622.584900
110.900002 27.602814 -622.474426
111.449997 27.600697 -622.383911
112.010002 27.593349 -622.353149
112.559998 27.599449 -622.283447
113.099998 27.590857 -622.152161
113.650002 27.580521 -622.040833
114.209999 27.583134 -622.010986
114.779999 27.583134 -622.010986
115.339996 27.576658 -621.970276
115.900002 27.578402 -621.950317
116.470001 27.576658 -621.970276
117.029999 27.580145 -621.930420
117.580002 27.574541 -621.879700
118.129997 27.573294 -621.779236
118.699997 27.573294 -621.779236
119.260002 27.572424 -621.789185
119.809998 27.571177 -621.688721
120.360001 27.569057 -621.598145
120.930000 27.567314 -621.618103
121.500000 27.562958 -621.667908
122.059998 27.568188 -621.608154
122.629997 27.567314 -621.618103
123.180000 27.560841 -621.577393
123.760002 27.567314 -621.618103
124.309998 27.564325 -621.537537
124.879997 27.560841 -621.577393
125.449997 27.561710 -621.567383
126.010002 27.562584 -621.557434
126.559998 27.560465 -621.466919
127.139999 27.565197 -621.527588
127.669998 27.556604 -621.396301
128.250000 27.561337 -621.456970
128.809998 27.554861 -621.416260
129.350006 27.546267 -621.284973
129.899994 27.549753 -621.245117
130.440002 27.540289 -621.123840
131.020004 27.547634 -621.154602
131.600006 27.551497 -621.225220
132.100006 27.536924 -620.932861
132.660004 27.529575 -620.902100
133.210007 27.533934 -620.852295
133.789993 27.529575 -620.902100
134.369995 27.540785 -621.003418
134.940002 27.539042 -621.023376
135.490005 27.536053 -620.942810
136.029999 27.527458 -620.811523
136.580002 27.521854 -620.760864
137.160004 27.525715 -620.831482
137.720001 27.529202 -620.791626
138.259995 27.518866 -620.680298
138.779999 27.516373 -620.479309
139.369995 27.515875 -620.599731
139.979996 27.526587 -620.821533
140.529999 27.521854 -620.760864
141.050003 27.511143 -620.539063
141.509995 27.489719 -620.095520
142.020004 27.481623 -619.843872
142.539993 27.474771 -619.692688
143.080002 27.474398 -619.582275
143.600006 27.460199 -619.400330
144.119995 27.455963 -619.219238
144.669998 27.443884 -619.127869
145.210007 27.441767 -619.037354
145.770004 27.441767 -619.037354
146.300003 27.434044 -618.896118
146.830002 27.426323 -618.754883
147.369995 27.423332 -618.674316
147.929993 27.425947 -618.644470
148.490005 27.424204 -618.664368
149.050003 27.427691 -618.624512
149.600006 27.419472 -618.603760
150.149994 27.417353 -618.513184
150.699997 27.419968 -618.483337
151.309998 27.423332 -618.674316
151.860001 27.426819 -618.634521
152.470001 27.430183 -618.825500
153.029999 27.431053 -618.815552
153.580002 27.426323 -618.754883
154.130005 27.428936 -618.725037
154.690002 27.419846 -618.714172
155.289993 27.428440 -618.845459
155.899994 27.433546 -619.016541
156.559998 27.458456 -619.420227
157.190002 27.469168 -619.642029
157.820007 27.476393 -619.903625
158.460007 27.490093 -620.205994
159.119995 27.507656 -620.578918
159.800003 27.528208 -621.032471
160.460007 27.547512 -621.385498
161.110001 27.556856 -621.737610
161.740005 27.576658 -621.970276
162.289993 27.571054 -621.919556
162.869995 27.576658 -621.970276
163.449997 27.572302 -622.020081
164.029999 27.577906 -622.070740
164.630005 27.577408 -622.191162
165.229996 27.586872 -622.312439
165.809998 27.588991 -622.402954
166.380005 27.588991 -622.402954
166.949997 27.588991 -622.402954
167.539993 27.588495 -622.523376
168.119995 27.595842 -622.554138
168.729996 27.600948 -622.725220
169.389999 27.621126 -623.068298
170.199997 27.655752 -623.934631
58.450001 27.146587 -625.164917
58.970001 27.120432 -624.660706
59.500000 27.103743 -624.277832
60.020000 27.084558 -623.693909
60.560001 27.073847 -623.472168
61.099998 27.051056 -623.158936
61.660000 27.048065 -623.078369
62.080002 26.982550 -621.647217
61.799999 26.605770 -613.332764
62.220001 26.556196 -612.063599
62.480000 26.424292 -609.211243
62.919998 26.372478 -608.082458
63.430000 26.358402 -607.669678
63.950001 26.337353 -607.336548
64.480003 26.333988 -607.145508
65.010002 26.321533 -606.943665
65.540001 26.309952 -606.731873
66.070000 26.307459 -606.530884
66.610001 26.295380 -606.439453
67.150002 26.294132 -606.338989
67.690002 26.293756 -606.228516
68.239998 26.287283 -606.187805
68.800003 26.290272 -606.268372
69.349998 26.298491 -606.289185
69.919998 26.296249 -606.429504
70.489998 26.303101 -606.580688
71.089996 26.320663 -606.953613
71.680000 26.341711 -607.286743
72.230003 26.339968 -607.306641
72.820000 26.348936 -607.548340
73.400002 26.359648 -607.770142
73.949997 26.359648 -607.770142
74.519997 26.365627 -607.931274
75.070000 26.370855 -607.871521
75.620003 26.369114 -607.891418
76.220001 26.389290 -608.234497
76.769997 26.380199 -608.223633
77.320000 26.381071 -608.213684
77.940002 26.408970 -608.697998
78.500000 26.407227 -608.717896
79.050003 26.407227 -608.717896
79.669998 26.434254 -609.212158
80.220001 26.426037 -609.191345
80.779999 26.434254 -609.212158
81.389999 26.448330 -609.624939
81.959999 26.452190 -609.695557
82.510002 26.454805 -609.665649
83.059998 26.453062 -609.685547
83.660004 26.464149 -610.017822
84.239998 26.474485 -610.129150
84.769997 26.466764 -609.987915
85.349998 26.472742 -610.149048
85.940002 26.489929 -610.411560
86.500000 26.487316 -610.441406
87.080002 26.492422 -610.612549
87.669998 26.504005 -610.824341
88.230003 26.509609 -610.875000
88.830002 26.525927 -611.147461
89.389999 26.524183 -611.167419
89.940002 26.525927 -611.147461
90.559998 26.540873 -611.550293
91.120003 26.545607 -611.610962
91.680000 26.547350 -611.591064
92.239998 26.545607 -611.610962
92.849998 26.557564 -611.933228
93.419998 26.558809 -612.033752
94.000000 26.572138 -612.225647
94.589996 26.583719 -612.437439
95.209999 26.593935 -612.779602
95.820000 26.612368 -613.142639
96.410004 26.624823 -613.344482
97.050003 26.650978 -613.848694
97.660004 26.662066 -614.180908
98.290001 26.686104 -614.594543
98.919998 26.699306 -615.017334
99.550003 26.719858 -615.470825
100.190002 26.740410 -615.924377
100.940002 26.798700 -617.093872
101.589996 26.814896 -617.597229
102.279999 26.850019 -618.343140
103.010002 26.894112 -619.330688
103.690002 26.930979 -620.056702
104.379997 26.966974 -620.792603
105.059998 26.993505 -621.407288
105.720001 27.015303 -621.961304
106.290001 27.021778 -622.002014
106.889999 27.026886 -622.173096
107.459999 27.025143 -622.193054
108.050003 27.031994 -622.344177
108.629997 27.042332 -622.455505
109.250000 27.047813 -622.737061
109.800003 27.045694 -622.646545
110.330002 27.034983 -622.424744
110.870003 27.037224 -622.284424
111.419998 27.026014 -622.183044
111.970001 27.023026 -622.102478
112.540001 27.023897 -622.092529
113.089996 27.020906 -622.011963
113.629997 27.011442 -621.890686
114.180000 27.010197 -621.790222
114.730003 27.008078 -621.699646
115.309998 27.009323 -621.800171
115.870003 27.011938 -621.770264
116.419998 27.010693 -621.669800
116.989998 27.010693 -621.669800
117.570000 27.013681 -621.750366
118.139999 27.012812 -621.760315
118.680000 27.004217 -621.629089
119.239998 27.005960 -621.609131
119.800003 27.006832 -621.599182
120.360001 27.000357 -621.558472
120.919998 27.003841 -621.518616
121.480003 26.997366 -621.477905
122.050003 27.002098 -621.538513
122.610001 26.996494 -621.487854
123.169998 26.999109 -621.457947
123.739998 26.998238 -621.467896
124.269997 26.991386 -621.316772
124.870003 26.996494 -621.487854
125.419998 26.992634 -621.417236
125.970001 26.990517 -621.326721
126.540001 26.988773 -621.346619
127.110001 26.989643 -621.336670
127.680000 26.996992 -621.367432
128.220001 26.986654 -621.256104
128.779999 26.988398 -621.236206
129.369995 26.988773 -621.346619
129.910004 26.989269 -621.226196
130.470001 26.982794 -621.185486
131.020004 26.978062 -621.124878
131.570007 26.983290 -621.065063
132.149994 26.986280 -621.145630
132.669998 26.967350 -620.903076
133.240005 26.975569 -620.923889
133.789993 26.969093 -620.883179
134.360001 26.967350 -620.903076
134.940002 26.974697 -620.933838
135.520004 26.975073 -621.044312
136.070007 26.972082 -620.963745
136.600006 26.966103 -620.802612
137.160004 26.967846 -620.782654
137.759995 26.976440 -620.913940
138.259995 26.960997 -620.631470
138.789993 26.951530 -620.510193
139.350006 26.955017 -620.470337
139.910004 26.946798 -620.449585
140.520004 26.960123 -620.641479
141.130005 26.970837 -620.863220
141.619995 26.948915 -620.540100
142.110001 26.939573 -620.187927
142.610001 26.923258 -619.915466
143.149994 26.921139 -619.824951
143.690002 26.911674 -619.703674
144.199997 26.910925 -619.482788
144.690002 26.888132 -619.169556
145.270004 26.892864 -619.230225
145.789993 26.886015 -619.079041
146.330002 26.884768 -618.978577
146.860001 26.877918 -618.827393
147.399994 26.873184 -618.766724
147.960007 26.865837 -618.735962
148.520004 26.866709 -618.726013
149.100006 26.870571 -618.796631
149.649994 26.866709 -618.726013
150.199997 26.869324 -618.696167
150.779999 26.872314 -618.776733
151.369995 26.874432 -618.867249
151.960007 26.875677 -618.967712
152.500000 26.874432 -618.867249
153.110001 26.886015 -619.079041
153.669998 26.886887 -619.069092
154.240005 26.885143 -619.088989
154.820007 26.890747 -619.139709
155.399994 26.893738 -619.220276
156.020004 26.894485 -619.441162
156.649994 26.910803 -619.713623
157.300003 26.923632 -620.025940
157.940002 26.938204 -620.318298
158.550003 26.950659 -620.520142
159.250000 26.966852 -621.023499
159.899994 26.988773 -621.346619
160.550003 26.998116 -621.698792
161.179993 27.006212 -621.950439
161.770004 27.010075 -622.021057
162.320007 27.013559 -621.981201
162.869995 27.007956 -621.930542
163.449997 27.005341 -621.960388
164.000000 27.008827 -621.920593
164.600006 27.016550 -622.061768
165.210007 27.023399 -622.212952
165.789993 27.018171 -622.272705
166.369995 27.022903 -622.333374
166.929993 27.017300 -622.282715
167.509995 27.021160 -622.353271
168.100006 27.024151 -622.433838
168.679993 27.028011 -622.504456
169.380005 27.047691 -622.967957
170.029999 27.060520 -623.280273
56.270000 26.627583 -626.163513
56.770000 26.587725 -625.356934
57.299999 26.569292 -624.993958
57.840000 26.558205 -624.661743
58.380001 26.541889 -624.389282
58.900002 26.518349 -623.855164
59.439999 26.505520 -623.542847
59.950001 26.481106 -623.018738
60.480000 26.473507 -622.646667
61.009998 26.455944 -622.273743
61.570000 26.452955 -622.193176
62.119999 26.446104 -622.041992
62.060001 26.169092 -615.914551
62.320000 26.045034 -612.972534
62.509998 25.882738 -609.434937
62.950001 25.836529 -608.356812
63.450001 25.811243 -607.842651
63.970001 25.802773 -607.480530
64.500000 25.787703 -607.308533
65.029999 25.778734 -607.066833
65.550003 25.770638 -606.815186
66.080002 25.757313 -606.623291
66.629997 25.760798 -606.583435
67.169998 25.757809 -606.502869
67.709999 25.742739 -606.330872
68.250000 25.741493 -606.230408
68.800003 25.746225 -606.291077
69.379997 25.756065 -606.522766
69.940002 25.759926 -606.593384
70.519997 25.765905 -606.754517
71.110001 25.777863 -607.076782
71.669998 25.789944 -607.168213
72.220001 25.789072 -607.178162
72.820000 25.804892 -607.571045
73.379997 25.809624 -607.631653
73.940002 25.807009 -607.661560
74.529999 25.825068 -607.914124
75.080002 25.815977 -607.903259
75.629997 25.816849 -607.893311
76.220001 25.834036 -608.155823
76.760002 25.830175 -608.085205
77.339996 25.836155 -608.246338
77.940002 25.851973 -608.639221
78.489998 25.847240 -608.578552
79.059998 25.856705 -608.699829
79.660004 25.874268 -609.072815
80.209999 25.875139 -609.062805
80.790001 25.880245 -609.233948
81.379997 25.894819 -609.526306
81.949997 25.899551 -609.586975
82.489998 25.895691 -609.516357
83.059998 25.899551 -609.586975
83.660004 25.911510 -609.909241
84.220001 25.915371 -609.979858
84.769997 25.910639 -609.919189
85.339996 25.920103 -610.040466
85.940002 25.932934 -610.352783
86.500000 25.932934 -610.352783
87.099998 25.944891 -610.675049
87.669998 25.953484 -610.806274
88.230003 25.954355 -610.796326
88.830002 25.970673 -611.068787
89.389999 25.966314 -611.118591
89.959999 25.969303 -611.199158
90.559998 25.984747 -611.481567
91.110001 25.986490 -611.461670
91.669998 25.985619 -611.471619
92.250000 25.991598 -611.632751
92.839996 25.999695 -611.884399
93.419998 26.006544 -612.035583
94.000000 26.009535 -612.116150
94.610001 26.029713 -612.459229
95.190002 26.043037 -612.651123
95.830002 26.060974 -613.134521
96.400002 26.064837 -613.205139
97.050003 26.085762 -613.769104
97.660004 26.106812 -614.102173
98.260002 26.114908 -614.353882
98.910004 26.139320 -614.877991
99.550003 26.162861 -615.412048
100.169998 26.173948 -615.744324
100.879997 26.223270 -616.672119
101.550003 26.245443 -617.336609
102.220001 26.272844 -617.941284
102.940002 26.312204 -618.868225
103.610001 26.346083 -619.513672
104.300003 26.373859 -620.228821
104.980003 26.411598 -620.944824
105.660004 26.438129 -621.559448
106.260002 26.446226 -621.811096
106.830002 26.445354 -621.821106
107.430000 26.451332 -621.982239
108.010002 26.460798 -622.103516
108.589996 26.458183 -622.133362
109.139999 26.462542 -622.083557
109.769997 26.472755 -622.425781
110.370003 26.486954 -622.607727
110.879997 26.465906 -622.274597
111.410004 26.460798 -622.103516
111.959999 26.459553 -622.002991
112.519997 26.461294 -621.983093
113.080002 26.449215 -621.891663
113.620003 26.447969 -621.791199
114.180000 26.443235 -621.730530
114.739998 26.445850 -621.700684
115.290001 26.443733 -621.610107
115.860001 26.441118 -621.640015
116.430000 26.446724 -621.690735
116.989998 26.442862 -621.620117
117.529999 26.433395 -621.498840
118.110001 26.438129 -621.559448
118.680000 26.443733 -621.610107
119.239998 26.445477 -621.590210
119.800003 26.438129 -621.559448
120.370003 26.439873 -621.539551
120.919998 26.436010 -621.468933
121.480003 26.436884 -621.458984
122.040001 26.430407 -621.418274
122.599998 26.432150 -621.398315
123.169998 26.430407 -621.418274
123.739998 26.438625 -621.439026
124.290001 26.427418 -621.337708
124.870003 26.431278 -621.408264
125.430000 26.432150 -621.398315
125.980003 26.430904 -621.297852
126.519997 26.428785 -621.207275
127.099998 26.423555 -621.267090
127.680000 26.430033 -621.307800
128.240005 26.429161 -621.317749
128.800003 26.431774 -621.287842
129.369995 26.430033 -621.307800
129.929993 26.432648 -621.277893
130.470001 26.425797 -621.126709
131.020004 26.419321 -621.085999
131.600006 26.425797 -621.126709
132.160004 26.425797 -621.126709
132.729996 26.425797 -621.126709
133.289993 26.417578 -621.105957
133.830002 26.414589 -621.025391
134.380005 26.414213 -620.914917
134.970001 26.421064 -621.066101
135.520004 26.417204 -620.995483
136.080002 26.412470 -620.934814
136.669998 26.421064 -621.066101
137.250000 26.417578 -621.105957
137.779999 26.410727 -620.954773
138.300003 26.407364 -620.763733
138.800003 26.392790 -620.471375
139.380005 26.396650 -620.541992
139.919998 26.394533 -620.451416
140.470001 26.391544 -620.370850
141.080002 26.392294 -620.591797
141.690002 26.406490 -620.773682
142.220001 26.398769 -620.632507
142.690002 26.376474 -620.198914
143.229996 26.373486 -620.118347
143.750000 26.370119 -619.927307
144.270004 26.355051 -619.755371
144.779999 26.345211 -619.523621
145.320007 26.343966 -619.423096
145.860001 26.341846 -619.332581
146.380005 26.327648 -619.150635
146.940002 26.331135 -619.110840
147.470001 26.322542 -618.979553
148.050003 26.327274 -619.040222
148.600006 26.319056 -619.019409
149.139999 26.319551 -618.898987
149.679993 26.318306 -618.798523
150.270004 26.316936 -618.928894
150.850006 26.319927 -619.009460
151.429993 26.324659 -619.070068
152.029999 26.332382 -619.211304
152.639999 26.336617 -619.392334
153.190002 26.331884 -619.331726
153.759995 26.339231 -619.362488
154.350006 26.339607 -619.472900
154.929993 26.342596 -619.553467
155.500000 26.349943 -619.584229
156.130005 26.357168 -619.845886
156.789993 26.376474 -620.198914
157.410004 26.378967 -620.399902
158.029999 26.397026 -620.652405
158.679993 26.400764 -620.953918
159.389999 26.430782 -621.528687
160.020004 26.439751 -621.770386
160.690002 26.454699 -622.173218
161.279999 26.457687 -622.253784
161.809998 26.457312 -622.143372
162.339996 26.450462 -621.992188
162.919998 26.456066 -622.042847
