1397
33.560001 -64.801491 -546.090210
34.130001 -64.919403 -547.093750
34.700001 -65.038185 -548.107239
35.389999 -65.380592 -550.988403
36.020000 -65.598122 -552.786255
36.669998 -65.858727 -554.961853
37.270000 -66.014488 -556.283264
37.889999 -66.181580 -557.734253
38.599998 -66.539185 -560.674255
39.230000 -66.707153 -562.135193
39.820000 -66.846359 -563.267334
40.410000 -66.958168 -564.201172
40.970001 -67.009964 -564.678467
41.529999 -67.082184 -565.274414
42.099998 -67.155273 -565.880371
42.669998 -67.232719 -566.536133
43.240002 -67.311905 -567.211792
43.810001 -67.381508 -567.777893
44.380001 -67.453728 -568.373840
44.959999 -67.530304 -569.019653
45.540001 -67.614723 -569.755066
46.200001 -67.801369 -571.314758
46.849998 -67.981911 -572.804688
47.529999 -68.208145 -574.702209
48.299999 -68.539230 -577.453796
-56.799999 -65.106842 -544.417236
-55.759998 -65.065498 -544.059448
-55.250000 -65.045082 -543.940796
-54.730000 -65.032883 -543.801331
-54.230000 -65.034622 -543.821289
-53.730000 -65.032005 -543.791382
-53.240002 -65.038109 -543.861084
-52.730000 -65.038109 -543.861084
-52.230000 -65.037239 -543.851135
-51.529999 -64.787964 -541.805115
-50.880001 -64.593475 -540.155762
-50.270000 -64.449913 -538.973755
-49.740002 -64.406830 -538.596069
-49.200001 -64.364624 -538.228394
-48.660000 -64.301117 -537.731995
-48.139999 -64.268494 -537.473877
-47.619999 -64.232391 -537.175903
-47.110001 -64.215828 -536.986633
-46.590000 -64.184952 -536.748413
-46.090000 -64.162788 -536.609802
-45.570000 -64.128418 -536.331726
-45.070000 -64.121445 -536.252075
-44.560001 -64.109245 -536.112610
-44.049999 -64.079239 -535.884338
-43.549999 -64.068779 -535.764771
-43.060001 -64.075752 -535.844482
-42.570000 -64.080109 -535.894287
-42.080002 -64.078369 -535.874390
-41.580002 -64.076622 -535.854431
-41.090000 -64.075752 -535.844482
-40.590000 -64.078369 -535.874390
-40.110001 -64.087082 -535.973999
-39.619999 -64.107506 -536.092651
-39.139999 -64.122322 -536.262024
-38.650002 -64.127548 -536.321777
-38.180000 -64.159302 -536.569946
-37.700001 -64.184952 -536.748413
-37.220001 -64.202377 -536.947632
-36.740002 -64.230644 -537.155945
-36.259998 -64.260651 -537.384216
-35.779999 -64.294144 -537.652344
-35.299999 -64.313324 -537.871460
-34.820000 -64.342461 -538.089783
-34.330002 -64.367233 -538.258240
-33.860001 -64.391640 -538.537170
-33.380001 -64.442940 -538.894104
-32.919998 -64.498222 -539.411255
-32.450001 -64.559113 -539.877686
-31.980000 -64.609161 -540.335083
-31.500000 -64.652245 -540.712769
-31.030001 -64.704414 -541.079590
-30.549999 -64.743141 -541.407471
-30.070000 -64.780121 -541.715454
-29.580000 -64.812744 -541.973572
-29.100000 -64.837143 -542.252502
-28.610001 -64.872383 -542.540527
-28.129999 -64.906746 -542.818604
-27.639999 -64.936752 -543.046875
-27.150000 -64.964149 -543.245239
-26.660000 -64.975479 -543.374695
-26.170000 -65.001999 -543.563110
-25.670000 -65.008102 -543.632874
-25.170000 -65.010719 -543.662720
-24.670000 -65.011589 -543.672729
-24.170000 -65.012459 -543.682678
-23.670000 -65.008972 -543.642822
-23.160000 -65.004616 -543.593018
-22.660000 -64.998512 -543.523254
-22.160000 -64.982452 -543.454407
-21.650000 -64.971123 -543.324890
-21.150000 -64.949829 -543.196289
-20.639999 -64.937630 -543.056824
-20.129999 -64.911980 -542.878357
-19.629999 -64.897163 -542.708984
-19.120001 -64.870636 -542.520630
-18.610001 -64.855820 -542.351257
-18.110001 -64.828430 -542.152893
-17.600000 -64.816231 -542.013428
-17.100000 -64.786217 -541.785156
-16.590000 -64.759697 -541.596741
-16.090000 -64.753593 -541.527039
-15.590000 -64.742264 -541.397522
-15.090000 -64.716614 -541.219055
-14.580000 -64.706161 -541.099548
-14.080000 -64.677025 -540.881226
-13.580000 -64.666565 -540.761719
-13.080000 -64.639168 -540.563354
-12.570000 -64.614395 -540.394836
-12.070000 -64.603065 -540.265320
-11.570000 -64.595215 -540.175659
-11.070000 -64.571312 -540.017151
-10.570000 -64.559113 -539.877686
-10.080000 -64.543045 -539.808838
-9.580000 -64.531715 -539.679321
-9.080000 -64.518639 -539.529907
-8.580000 -64.499092 -539.421204
-8.080000 -64.484276 -539.251831
-7.580000 -64.482536 -539.231934
-7.080000 -64.456886 -539.053467
-6.590000 -64.445557 -538.923950
-6.090000 -64.420776 -538.755493
-5.590000 -64.412064 -538.655884
-5.090000 -64.389023 -538.507324
-4.600000 -64.381180 -538.417664
-4.100000 -64.359886 -538.289001
-3.600000 -64.349426 -538.169495
-3.110000 -64.336357 -538.020020
-2.610000 -64.316811 -537.911316
-2.110000 -64.301987 -537.742004
-1.620000 -64.280701 -537.613342
-1.120000 -64.269371 -537.483826
-0.630000 -64.263268 -537.414124
-0.130000 -64.241974 -537.285461
0.360000 -64.230644 -537.155945
0.850000 -64.211967 -537.057251
1.350000 -64.202377 -536.947632
1.840000 -64.196281 -536.877930
2.340000 -64.190178 -536.808167
2.830000 -64.170631 -536.699463
3.320000 -64.160172 -536.579895
3.820000 -64.159302 -536.569946
4.310000 -64.153198 -536.500244
4.800000 -64.131905 -536.371582
5.300000 -64.137138 -536.431335
5.790000 -64.131035 -536.361633
6.290000 -64.131905 -536.371582
6.780000 -64.134521 -536.401489
7.280000 -64.151459 -536.480286
7.770000 -64.152328 -536.490234
8.260000 -64.149712 -536.460388
8.760000 -64.157555 -536.550049
9.250000 -64.161041 -536.589905
9.750000 -64.167145 -536.659607
10.240000 -64.170631 -536.699463
10.740000 -64.174988 -536.749268
11.230000 -64.191917 -536.828125
11.730000 -64.202377 -536.947632
12.230000 -64.223671 -537.076294
12.730000 -64.231514 -537.165955
13.220000 -64.241104 -537.275513
13.720000 -64.264137 -537.424072
14.220000 -64.270241 -537.493835
14.720000 -64.283310 -537.643250
15.220000 -64.305473 -537.781860
15.710000 -64.312447 -537.861511
16.209999 -64.321167 -537.961121
16.709999 -64.348557 -538.159485
17.209999 -64.359016 -538.279053
17.719999 -64.389023 -538.507324
18.209999 -64.407700 -538.606079
18.719999 -64.432106 -538.885010
19.219999 -64.450783 -538.983765
19.719999 -64.463860 -539.133179
20.230000 -64.489510 -539.311584
20.730000 -64.497353 -539.401245
21.230000 -64.529099 -539.649475
21.740000 -64.567825 -539.977295
22.250000 -64.579155 -540.106812
22.740000 -64.579155 -540.106812
23.240000 -64.595215 -540.175659
23.750000 -64.612648 -540.374939
24.270000 -64.670921 -540.811523
24.790001 -64.718361 -541.239014
25.299999 -64.750114 -541.487183
25.809999 -64.781860 -541.735352
26.320000 -64.815353 -542.003479
26.830000 -64.850594 -542.291504
27.340000 -64.870636 -542.520630
27.850000 -64.891060 -542.639282
28.360001 -64.907616 -542.828552
28.879999 -64.959793 -543.195374
29.389999 -64.983322 -543.464355
29.910000 -65.017685 -543.742432
30.420000 -65.038109 -543.861084
30.930000 -65.055542 -544.060364
31.450001 -65.089905 -544.338440
31.969999 -65.128632 -544.666260
32.490002 -65.168221 -545.004150
33.020000 -65.233467 -545.520386
33.580002 -65.336563 -546.354614
34.150002 -65.457092 -547.388000
34.700001 -65.537155 -548.073669
35.410000 -65.922150 -551.212036
36.029999 -66.120125 -552.901184
36.650002 -66.329803 -554.609436
37.250000 -66.478592 -555.851196
37.880001 -66.678314 -557.560303
38.570000 -66.989342 -560.082764
39.240002 -67.251694 -562.278259
39.840000 -67.384422 -563.451172
40.430000 -67.510551 -564.433899
41.000000 -67.582771 -565.029907
41.560001 -67.657600 -565.655762
42.130001 -67.729820 -566.251709
42.700001 -67.807266 -566.907471
43.279999 -67.887329 -567.593079
43.869999 -67.988686 -568.407349
44.430000 -68.044838 -568.934448
45.000000 -68.112694 -569.480652
45.639999 -68.281914 -570.841064
46.299999 -68.478142 -572.510315
46.959999 -68.668274 -574.109802
47.680000 -68.946686 -576.374207
-55.240002 -65.534462 -543.797607
-54.750000 -65.559242 -543.966064
-54.259998 -65.564468 -544.025879
-53.759998 -65.568832 -544.075684
-53.279999 -65.597092 -544.283997
-52.770000 -65.574059 -544.135437
-52.250000 -65.547539 -543.947021
-51.509998 -65.257797 -541.553162
-50.849998 -65.058952 -539.854065
-50.279999 -64.963699 -539.109497
-49.750000 -64.916260 -538.682007
-49.230000 -64.885376 -538.443787
-48.689999 -64.839684 -538.036255
-48.169998 -64.788383 -537.679382
-47.639999 -64.751404 -537.371399
-47.130001 -64.733101 -537.162231
-46.630001 -64.717033 -537.093323
-46.119999 -64.703964 -536.943909
-45.619999 -64.692635 -536.814392
-45.110001 -64.668724 -536.655884
-44.599998 -64.657394 -536.526367
-44.090000 -64.630005 -536.328003
-43.570000 -64.594765 -536.039978
-43.080002 -64.590408 -535.990173
-42.599998 -64.606094 -536.169495
-42.110001 -64.626518 -536.288147
-41.610001 -64.622162 -536.238342
-41.119999 -64.626518 -536.288147
-40.630001 -64.624771 -536.268250
-40.150002 -64.638718 -536.427612
-39.660000 -64.646561 -536.517273
-39.180000 -64.671341 -536.685791
-38.700001 -64.697861 -536.874207
-38.220001 -64.715294 -537.073425
-37.730000 -64.737457 -537.212036
-37.240002 -64.743561 -537.281738
-36.770000 -64.776184 -537.539856
-36.279999 -64.783150 -537.619568
-35.799999 -64.818390 -537.907593
-35.320000 -64.844040 -538.086060
-34.840000 -64.863213 -538.305237
-34.349998 -64.886253 -538.453796
-33.869999 -64.919746 -538.721863
-33.400002 -64.961952 -539.089600
-32.919998 -65.005905 -539.477234
-32.450001 -65.058075 -539.844055
-31.980000 -65.101158 -540.221741
-31.490000 -65.136398 -540.509766
-31.020000 -65.183838 -540.937256
-30.540001 -65.213844 -541.165527
-30.059999 -65.250824 -541.473511
-29.570000 -65.282578 -541.721680
-29.080000 -65.300880 -541.930847
-28.600000 -65.331757 -542.169067
-28.110001 -65.364380 -542.427246
-27.620001 -65.392647 -542.635559
-27.129999 -65.408333 -542.814880
-26.639999 -65.434853 -543.003296
-26.150000 -65.444443 -543.112854
-25.650000 -65.464859 -543.231506
-25.150000 -65.470963 -543.301270
-24.660000 -65.473579 -543.331116
-24.150000 -65.472702 -543.321167
-23.650000 -65.466606 -543.251465
-23.150000 -65.459633 -543.171753
-22.639999 -65.441826 -543.082947
-22.139999 -65.433983 -542.993286
-21.639999 -65.427879 -542.923584
-21.129999 -65.407455 -542.804871
-20.620001 -65.390900 -542.615601
-20.120001 -65.366119 -542.447144
-19.610001 -65.350433 -542.267822
-19.110001 -65.327400 -542.119263
-18.600000 -65.300880 -541.930847
-18.100000 -65.287804 -541.781433
-17.590000 -65.263023 -541.612976
-17.090000 -65.248207 -541.443604
-16.590000 -65.230400 -541.354797
-16.090000 -65.222557 -541.265137
-15.580000 -65.206871 -541.085815
-15.080000 -65.184708 -540.947266
-14.580000 -65.170761 -540.787842
-14.070000 -65.142494 -540.579529
-13.570000 -65.121208 -540.450867
-13.070000 -65.102028 -540.231750
-12.570000 -65.085098 -540.152893
-12.070000 -65.068535 -539.963623
-11.570000 -65.064178 -539.913818
-11.070000 -65.046371 -539.825012
-10.570000 -65.030685 -539.645691
-10.070000 -65.026329 -539.595886
-9.570000 -65.002419 -539.437378
-9.070000 -64.991959 -539.317871
-8.580000 -64.971542 -539.199158
-8.080000 -64.963699 -539.109497
-7.580000 -64.942406 -538.980896
-7.080000 -64.932816 -538.871277
-6.580000 -64.917130 -538.691956
-6.090000 -64.901070 -538.623108
-5.590000 -64.892349 -538.523499
-5.090000 -64.868446 -538.364990
-4.590000 -64.857986 -538.245422
-4.100000 -64.850143 -538.155762
-3.600000 -64.828850 -538.027161
-3.110000 -64.816650 -537.887695
-2.610000 -64.794487 -537.749084
-2.110000 -64.784027 -537.629517
-1.620000 -64.778793 -537.569763
-1.120000 -64.754021 -537.401306
-0.630000 -64.749657 -537.351501
-0.130000 -64.724007 -537.173035
0.360000 -64.710068 -537.013672
0.850000 -64.704834 -536.953857
1.350000 -64.688774 -536.885010
1.840000 -64.678314 -536.765442
2.340000 -64.680054 -536.785400
2.830000 -64.668724 -536.655884
3.320000 -64.646561 -536.517273
3.820000 -64.643951 -536.487427
4.310000 -64.639587 -536.437622
4.810000 -64.637848 -536.417664
5.300000 -64.634361 -536.377808
5.790000 -64.635231 -536.387756
6.290000 -64.634361 -536.377808
6.780000 -64.645691 -536.507324
7.280000 -64.643074 -536.477417
7.770000 -64.645691 -536.507324
8.260000 -64.646561 -536.517273
8.760000 -64.662628 -536.586182
9.250000 -64.665237 -536.616028
9.750000 -64.675697 -536.735596
10.250000 -64.683540 -536.825256
10.740000 -64.687027 -536.865112
11.240000 -64.700478 -536.904053
11.730000 -64.712677 -537.043518
12.230000 -64.719650 -537.123230
12.730000 -64.740074 -537.241882
13.230000 -64.754021 -537.401306
13.720000 -64.773567 -537.510010
14.220000 -64.788383 -537.679382
14.720000 -64.808800 -537.798035
15.220000 -64.817520 -537.897644
15.720000 -64.825363 -537.987305
16.219999 -64.850143 -538.155762
16.719999 -64.864082 -538.315186
17.219999 -64.888863 -538.483643
17.719999 -64.901939 -538.633057
18.230000 -64.932816 -538.871277
18.730000 -64.953239 -538.989990
19.230000 -64.971542 -539.199158
19.730000 -64.992836 -539.327820
20.230000 -65.007652 -539.497131
20.740000 -65.046371 -539.825012
21.250000 -65.074638 -540.033386
21.750000 -65.101158 -540.221741
22.250000 -65.101158 -540.221741
22.750000 -65.098541 -540.191895
23.250000 -65.098541 -540.191895
23.760000 -65.147728 -540.639282
24.290001 -65.229530 -541.344849
24.809999 -65.281700 -541.711731
25.320000 -65.293907 -541.851196
25.830000 -65.330009 -542.149170
26.340000 -65.356537 -542.337585
26.850000 -65.390030 -542.605652
27.360001 -65.403976 -542.765076
27.870001 -65.434853 -543.003296
28.389999 -65.469215 -543.281311
28.900000 -65.504456 -543.569336
29.410000 -65.533592 -543.787659
29.920000 -65.542305 -543.887268
30.430000 -65.571442 -544.105530
30.950001 -65.607552 -544.403564
31.469999 -65.624107 -544.592834
31.990000 -65.661095 -544.900757
32.509998 -65.711517 -545.247681
33.049999 -65.785484 -545.863586
33.610001 -65.903397 -546.867126
34.160000 -65.977356 -547.483032
34.709999 -66.060028 -548.198547
35.419998 -66.445892 -551.346924
36.029999 -66.627312 -552.846802
36.639999 -66.809593 -554.356628
37.230000 -66.959259 -555.608398
37.869999 -67.192848 -557.475098
38.509998 -67.397797 -559.243958
39.240002 -67.770584 -562.242920
39.869999 -67.959846 -563.832458
40.459999 -68.078629 -564.845947
41.029999 -68.145615 -565.382141
41.590000 -68.218704 -565.988098
42.160000 -68.292664 -566.604004
42.740002 -68.392281 -567.398315
43.330002 -68.493629 -568.212585
43.919998 -68.588509 -569.067566
44.500000 -68.675919 -569.722473
45.099998 -68.793831 -570.726013
45.709999 -68.911743 -571.729553
46.400002 -69.149689 -573.646118
47.080002 -69.376801 -575.553589
-52.799999 -66.124329 -544.458740
-52.240002 -66.040405 -543.843689
-51.480000 -65.714554 -541.151855
-50.849998 -65.543602 -539.771484
-50.310001 -65.492676 -539.304138
-49.770000 -65.437019 -538.897461
-49.250000 -65.417839 -538.678284
-48.730000 -65.368286 -538.341309
-48.200001 -65.326073 -537.973633
-47.669998 -65.284737 -537.615845
-47.150002 -65.251244 -537.347778
-46.639999 -65.222977 -537.139404
-46.139999 -65.218620 -537.089600
-45.639999 -65.214264 -537.039795
-45.130001 -65.192970 -536.911194
-44.630001 -65.183380 -536.801575
-44.130001 -65.177284 -536.731873
-43.630001 -65.174667 -536.701965
-43.130001 -65.170311 -536.652161
-42.639999 -65.170311 -536.652161
-42.139999 -65.159477 -536.643066
-41.639999 -65.150764 -536.543457
-41.160000 -65.173798 -536.692017
-40.660000 -65.172928 -536.682068
-40.180000 -65.185997 -536.831482
-39.700001 -65.207291 -536.960083
-39.209999 -65.215134 -537.049744
-38.720001 -65.225594 -537.169312
-38.240002 -65.253860 -537.377625
-37.759998 -65.280380 -537.566040
-37.279999 -65.302170 -537.815063
-36.799999 -65.325203 -537.963623
-36.310001 -65.329559 -538.013428
-35.820000 -65.351723 -538.152039
-35.340000 -65.367416 -538.331360
-34.849998 -65.393066 -538.509827
-34.360001 -65.405266 -538.649292
-33.889999 -65.455696 -538.996216
-33.410000 -65.476608 -539.235291
-32.930000 -65.512718 -539.533264
-32.450001 -65.550568 -539.851196
-31.980000 -65.600998 -540.198120
-31.500000 -65.635368 -540.476196
-31.020000 -65.672348 -540.784119
-30.530001 -65.690651 -540.993347
-30.040001 -65.720657 -541.221558
-29.559999 -65.750664 -541.449829
-29.070000 -65.779800 -541.668152
-28.580000 -65.795486 -541.847412
-28.100000 -65.828979 -542.115540
-27.610001 -65.858116 -542.333801
-27.120001 -65.868576 -542.453369
-26.620001 -65.889000 -542.572021
-26.129999 -65.903816 -542.741394
-25.629999 -65.907303 -542.781250
-25.139999 -65.925980 -542.880005
-24.639999 -65.926849 -542.889954
-24.139999 -65.926849 -542.889954
-23.629999 -65.921623 -542.830200
-23.129999 -65.906425 -542.771301
-22.629999 -65.901199 -542.711487
-22.129999 -65.894226 -542.631836
-21.620001 -65.885513 -542.532227
-21.120001 -65.860733 -542.363708
-20.610001 -65.835953 -542.195251
-20.100000 -65.821136 -542.025879
-19.600000 -65.796356 -541.857422
-19.090000 -65.766350 -541.629150
-18.590000 -65.758507 -541.539490
-18.090000 -65.748047 -541.419922
-17.580000 -65.730240 -541.331177
-17.080000 -65.717171 -541.181702
-16.580000 -65.696747 -541.063049
-16.080000 -65.685417 -540.933533
-15.580000 -65.674957 -540.814026
-15.070000 -65.649307 -540.635559
-14.570000 -65.620171 -540.417297
-14.070000 -65.609718 -540.297729
-13.570000 -65.587547 -540.159119
-13.060000 -65.573608 -539.999756
-12.570000 -65.566635 -539.920044
-12.070000 -65.545341 -539.791443
-11.570000 -65.534882 -539.671875
-11.070000 -65.515335 -539.563171
-10.570000 -65.509232 -539.493408
-10.070000 -65.483582 -539.315002
-9.570000 -65.483582 -539.315002
-9.070000 -65.467026 -539.125732
-8.570000 -65.446602 -539.007019
-8.070000 -65.436142 -538.887512
-7.580000 -65.413109 -538.738953
-7.080000 -65.403519 -538.629333
-6.580000 -65.399162 -538.579529
-6.080000 -65.376999 -538.440979
-5.590000 -65.366539 -538.321411
-5.090000 -65.356956 -538.211853
-4.590000 -65.337402 -538.103088
-4.100000 -65.331306 -538.033386
-3.600000 -65.319099 -537.893921
-3.110000 -65.296066 -537.745361
-2.610000 -65.283867 -537.605896
-2.110000 -65.264313 -537.497192
-1.620000 -65.254730 -537.387573
-1.120000 -65.247757 -537.307922
-0.630000 -65.229080 -537.209167
-0.130000 -65.199074 -536.980896
0.360000 -65.194717 -536.931091
0.850000 -65.186867 -536.841431
1.350000 -65.182510 -536.791626
1.840000 -65.176414 -536.721863
2.340000 -65.162094 -536.672974
2.830000 -65.155121 -536.593262
3.320000 -65.142914 -536.453796
3.820000 -65.147278 -536.503601
4.310000 -65.129471 -536.414795
4.810000 -65.124237 -536.355042
5.300000 -65.120750 -536.315186
5.790000 -65.141174 -536.433838
6.290000 -65.128593 -536.404846
6.780000 -65.144661 -536.473694
7.280000 -65.145531 -536.483704
7.770000 -65.147278 -536.503601
8.270000 -65.153374 -536.573303
8.760000 -65.162094 -536.672974
9.260000 -65.162094 -536.672974
9.750000 -65.175537 -536.711914
10.250000 -65.186867 -536.841431
10.740000 -65.189484 -536.871338
11.240000 -65.212517 -537.019897
11.740000 -65.224724 -537.159363
12.240000 -65.236053 -537.288879
12.730000 -65.252113 -537.357727
13.230000 -65.267799 -537.537048
13.730000 -65.289963 -537.675598
14.230000 -65.297813 -537.765259
14.730000 -65.320847 -537.913818
15.220000 -65.327820 -537.993530
15.720000 -65.338280 -538.113098
16.219999 -65.356087 -538.201843
16.719999 -65.376129 -538.430969
17.230000 -65.409622 -538.699097
17.730000 -65.437889 -538.907410
18.230000 -65.461792 -539.065918
18.740000 -65.474869 -539.215393
19.240000 -65.503136 -539.423706
19.750000 -65.534882 -539.671875
20.250000 -65.554054 -539.891052
20.760000 -65.601868 -540.208069
21.270000 -65.616684 -540.377441
21.770000 -65.643211 -540.565857
22.260000 -65.614075 -540.347534
22.750000 -65.606232 -540.257874
23.260000 -65.637978 -540.506042
23.799999 -65.754150 -541.489685
24.320000 -65.800720 -541.907227
24.830000 -65.822884 -542.045776
25.330000 -65.834213 -542.175293
25.850000 -65.872063 -542.493225
26.360001 -65.903816 -542.741394
26.870001 -65.939049 -543.029419
27.379999 -65.955986 -543.108276
27.889999 -65.989479 -543.376343
28.400000 -66.008652 -543.595520
28.910000 -66.032562 -543.754028
29.420000 -66.044762 -543.893494
29.940001 -66.074768 -544.121765
30.450001 -66.105652 -544.359985
30.969999 -66.137398 -544.608154
31.480000 -66.170021 -544.866272
32.009998 -66.209618 -545.204102
32.529999 -66.252701 -545.581787
33.080002 -66.349693 -546.346252
33.639999 -66.455406 -547.210327
34.169998 -66.500229 -547.607910
34.790001 -66.736427 -549.504578
35.430000 -66.983093 -551.520752
36.020000 -67.132751 -552.772461
36.639999 -67.316788 -554.302246
37.230000 -67.466446 -555.553955
37.869999 -67.700905 -557.430664
38.520000 -67.925400 -559.308228
39.250000 -68.299934 -562.327087
39.880001 -68.490067 -563.926636
40.509998 -68.665382 -565.356750
41.070000 -68.740211 -565.982605
41.630001 -68.797615 -566.409241
42.200001 -68.881165 -567.134705
42.799999 -69.008163 -568.127441
43.389999 -69.109520 -568.941711
43.990002 -69.218719 -569.845642
44.570000 -69.308365 -570.640869
45.169998 -69.409721 -571.455078
45.799999 -69.576317 -572.785645
46.529999 -69.875648 -575.289063
47.200001 -70.079224 -576.927551
-52.060001 -66.318359 -541.972351
-51.480000 -66.216141 -541.148132
-50.880001 -66.083031 -540.085693
-50.349998 -66.039955 -539.708008
-49.810001 -65.979935 -539.251465
-49.290001 -65.946442 -538.983398
-48.759998 -65.903358 -538.605713
-48.240002 -65.878586 -538.437195
-47.709999 -65.827660 -537.969849
-47.189999 -65.797653 -537.741638
-46.669998 -65.764160 -537.473511
-46.180000 -65.765900 -537.493469
-45.680000 -65.759796 -537.423706
-45.180000 -65.755440 -537.373901
-44.669998 -65.728920 -537.185486
-44.169998 -65.725433 -537.145630
-43.660000 -65.703270 -537.007080
-43.160000 -65.691940 -536.877563
-42.660000 -65.691071 -536.867615
-42.169998 -65.698914 -536.957275
-41.680000 -65.698036 -536.947266
-41.189999 -65.705887 -537.036926
-40.700001 -65.723686 -537.125732
-40.209999 -65.728050 -537.175537
-39.720001 -65.735023 -537.255249
-39.240002 -65.758057 -537.403809
-38.759998 -65.791550 -537.671875
-38.279999 -65.804626 -537.821350
-37.799999 -65.833755 -538.039612
-37.310001 -65.838989 -538.099365
-36.820000 -65.860283 -538.228027
-36.330002 -65.869865 -538.337585
-35.840000 -65.875099 -538.397400
-35.349998 -65.899879 -538.565857
-34.869999 -65.916435 -538.755127
-34.380001 -65.938599 -538.893738
-33.900002 -65.963379 -539.062195
-33.419998 -65.997742 -539.340271
-32.939999 -66.022148 -539.619202
-32.450001 -66.050407 -539.827515
-31.980000 -66.088264 -540.145447
-31.490000 -66.120888 -540.403564
-31.010000 -66.152634 -540.651733
-30.520000 -66.180031 -540.850098
-30.030001 -66.193977 -541.009521
-29.549999 -66.223984 -541.237793
-29.059999 -66.253120 -541.456055
-28.570000 -66.267059 -541.615479
-28.080000 -66.296204 -541.833740
-27.590000 -66.320107 -541.992249
-27.100000 -66.334923 -542.161621
-26.610001 -66.353600 -542.260376
-26.120001 -66.364929 -542.389893
-25.620001 -66.369286 -542.439697
-25.120001 -66.382736 -542.478638
-24.620001 -66.383606 -542.488647
-24.120001 -66.371902 -542.469543
-23.620001 -66.371902 -542.469543
-23.120001 -66.364059 -542.379883
-22.620001 -66.361443 -542.350037
-22.110001 -66.355347 -542.280273
-21.610001 -66.331436 -542.121765
-21.100000 -66.317490 -541.962402
-20.600000 -66.293587 -541.803833
-20.090000 -66.279640 -541.644470
-19.590000 -66.256607 -541.495911
-19.080000 -66.244400 -541.356445
-18.580000 -66.223114 -541.227783
-18.080000 -66.217880 -541.168030
-17.580000 -66.210907 -541.088318
-17.080000 -66.189613 -540.959717
-16.570000 -66.178284 -540.830200
-16.070000 -66.156998 -540.701599
-15.570000 -66.148277 -540.601929
-15.070000 -66.123497 -540.433472
-14.570000 -66.109558 -540.274109
-14.060000 -66.084778 -540.105591
-13.560000 -66.071701 -539.956177
-13.060000 -66.046051 -539.777710
-12.560000 -66.042564 -539.737854
-12.060000 -66.023018 -539.629150
-11.560000 -66.011688 -539.499634
-11.060000 -66.004715 -539.419983
-10.570000 -65.984299 -539.301270
-10.070000 -65.972092 -539.161804
-9.570000 -65.968605 -539.122009
-9.070000 -65.943832 -538.953491
-8.570000 -65.939468 -538.903687
-8.070000 -65.912079 -538.705322
-7.580000 -65.905975 -538.635559
-7.080000 -65.898132 -538.545959
-6.580000 -65.878586 -538.437195
-6.080000 -65.869865 -538.337585
-5.590000 -65.849449 -538.218933
-5.090000 -65.836372 -538.069519
-4.590000 -65.828529 -537.979858
-4.100000 -65.814209 -537.930908
-3.600000 -65.810722 -537.891052
-3.110000 -65.779846 -537.652832
-2.610000 -65.774612 -537.593079
-2.110000 -65.761543 -537.443665
-1.620000 -65.741997 -537.334900
-1.120000 -65.728920 -537.185486
-0.630000 -65.726303 -537.155640
-0.130000 -65.701530 -536.987122
0.360000 -65.689323 -536.847656
0.850000 -65.673264 -536.778809
1.350000 -65.667160 -536.709045
1.840000 -65.664543 -536.679199
2.340000 -65.661934 -536.649292
2.830000 -65.655830 -536.579590
3.320000 -65.642380 -536.540588
3.820000 -65.640640 -536.520691
4.310000 -65.636284 -536.470825
4.810000 -65.633667 -536.440979
5.300000 -65.638023 -536.490784
5.790000 -65.635406 -536.460876
6.290000 -65.634537 -536.450928
6.780000 -65.639771 -536.510681
7.280000 -65.654961 -536.569580
7.770000 -65.655830 -536.579590
8.270000 -65.668907 -536.729004
8.760000 -65.668907 -536.729004
9.260000 -65.675880 -536.808716
9.750000 -65.691940 -536.877563
10.250000 -65.699783 -536.967224
10.750000 -65.707626 -537.056885
11.240000 -65.728920 -537.185486
11.740000 -65.758057 -537.403809
12.240000 -65.769386 -537.533325
12.740000 -65.778976 -537.642883
13.240000 -65.796776 -537.731689
13.730000 -65.792419 -537.681824
14.230000 -65.802010 -537.791443
14.730000 -65.826790 -537.959900
15.230000 -65.836372 -538.069519
15.730000 -65.849449 -538.218933
16.230000 -65.881195 -538.467102
16.740000 -65.913818 -538.725220
17.240000 -65.943832 -538.953491
17.740000 -65.972092 -539.161804
18.250000 -66.002098 -539.390076
18.750000 -66.024757 -539.649109
19.260000 -66.058258 -539.917175
19.760000 -66.083908 -540.095642
20.270000 -66.113914 -540.323914
20.780001 -66.150024 -540.621887
21.280001 -66.174797 -540.790344
21.790001 -66.192230 -540.989624
22.290001 -66.193100 -540.999573
22.790001 -66.215263 -541.138123
23.309999 -66.281380 -541.664368
23.840000 -66.334923 -542.161621
24.340000 -66.351860 -542.240417
24.850000 -66.369286 -542.439697
25.360001 -66.394066 -542.608154
25.870001 -66.427559 -542.876282
26.379999 -66.459312 -543.124451
26.889999 -66.468025 -543.224060
27.389999 -66.491066 -543.372620
27.910000 -66.510239 -543.591797
28.420000 -66.537628 -543.790161
28.930000 -66.562408 -543.958618
29.430000 -66.572868 -544.078186
29.950001 -66.609848 -544.386108
30.469999 -66.639854 -544.614380
30.990000 -66.673347 -544.882507
31.500000 -66.704231 -545.120667
32.029999 -66.749054 -545.518311
32.560001 -66.808197 -545.964844
33.110001 -66.909554 -546.779114
33.660000 -67.007416 -547.553528
34.230000 -67.127075 -548.576965
34.860001 -67.359787 -550.433777
35.439999 -67.505096 -551.635681
36.029999 -67.646042 -552.787781
36.639999 -67.842651 -554.346558
37.250000 -68.017967 -555.776733
37.860001 -68.194145 -557.216858
38.520000 -68.447784 -559.312744
39.240002 -68.791435 -562.093384
39.910000 -69.066360 -564.317871
40.560001 -69.283882 -566.115723
41.119999 -69.344772 -566.582214
41.689999 -69.422218 -567.237976
42.270000 -69.518341 -567.992432
42.880001 -69.653191 -569.074829
43.470001 -69.757156 -569.919006
44.060001 -69.863739 -570.793030
44.630001 -69.929855 -571.319275
45.259998 -70.077782 -572.551025
45.939999 -70.317467 -574.487549
46.650002 -70.571968 -576.593384
-53.189999 -67.605125 -548.304260
-52.070000 -66.822563 -541.998474
-51.459999 -66.680740 -540.836426
-50.900002 -66.604164 -540.190674
-50.360001 -66.551994 -539.823792
-49.840000 -66.516762 -539.535767
-49.320000 -66.487625 -539.317505
-48.779999 -66.439308 -538.880005
-48.259998 -66.404076 -538.591980
-47.750000 -66.381042 -538.443481
-47.240002 -66.365349 -538.264160
-46.730000 -66.339699 -538.085693
-46.220001 -66.330986 -537.986084
-45.709999 -66.304466 -537.797668
-45.209999 -66.284912 -537.688965
-44.709999 -66.296623 -537.708008
-44.209999 -66.276199 -537.589355
-43.709999 -66.275330 -537.579346
-43.200001 -66.249680 -537.400940
-42.700001 -66.240959 -537.301331
-42.200001 -66.237473 -537.261475
-41.720001 -66.250549 -537.410889
-41.230000 -66.269226 -537.509644
-40.750000 -66.281425 -537.649109
-40.259998 -66.301849 -537.767761
-39.759998 -66.284912 -537.688965
-39.270000 -66.307076 -537.827576
-38.779999 -66.316666 -537.937134
-38.299999 -66.337090 -538.055786
-37.810001 -66.352776 -538.235107
-37.330002 -66.379295 -538.423523
-36.840000 -66.386269 -538.503235
-36.360001 -66.410172 -538.661743
-35.869999 -66.420631 -538.781311
-35.380001 -66.446281 -538.959717
-34.889999 -66.450638 -539.009521
-34.400002 -66.457611 -539.089233
-33.910000 -66.481522 -539.247742
-33.430000 -66.508041 -539.436157
-32.950001 -66.538925 -539.674377
-32.459999 -66.559837 -539.913452
-31.980000 -66.588104 -540.121765
-31.490000 -66.617241 -540.340088
-31.000000 -66.641144 -540.498596
-30.520000 -66.662064 -540.737671
-30.030001 -66.690331 -540.946045
-29.540001 -66.711624 -541.074646
-29.049999 -66.729050 -541.273865
-28.559999 -66.752090 -541.422424
-28.070000 -66.766029 -541.581848
-27.580000 -66.788193 -541.720459
-27.090000 -66.799522 -541.849915
-26.600000 -66.822563 -541.998474
-26.100000 -66.826920 -542.048279
-25.600000 -66.832146 -542.108093
-25.110001 -66.848213 -542.176941
-24.610001 -66.848213 -542.176941
-24.110001 -66.849083 -542.186890
-23.610001 -66.829536 -542.078186
-23.110001 -66.828667 -542.068237
-22.600000 -66.817329 -541.938721
-22.100000 -66.800400 -541.859924
-21.590000 -66.790810 -541.750305
-21.090000 -66.768646 -541.611755
-20.580000 -66.752960 -541.432434
-20.080000 -66.729050 -541.273865
-19.580000 -66.722076 -541.194214
-19.080000 -66.713364 -541.094604
-18.570000 -66.698174 -541.035645
-18.070000 -66.689461 -540.936035
-17.570000 -66.682487 -540.856384
-17.070000 -66.667290 -540.797485
-16.570000 -66.651604 -540.618164
-16.070000 -66.632057 -540.509460
-15.570000 -66.621597 -540.389893
-15.060000 -66.611137 -540.270325
-14.560000 -66.583748 -540.071960
-14.060000 -66.563324 -539.953308
-13.560000 -66.551125 -539.813843
-13.060000 -66.524605 -539.625427
-12.560000 -66.521988 -539.595581
-12.060000 -66.513275 -539.495911
-11.560000 -66.492851 -539.377258
-11.060000 -66.483261 -539.267700
-10.560000 -66.474548 -539.168030
-10.060000 -66.454124 -539.049377
-9.570000 -66.443672 -538.929871
-9.070000 -66.420631 -538.781311
-8.570000 -66.415405 -538.721497
-8.070000 -66.406693 -538.621887
-7.570000 -66.390625 -538.553040
-7.080000 -66.379295 -538.423523
-6.580000 -66.358871 -538.304871
-6.080000 -66.351906 -538.225159
-5.590000 -66.341446 -538.105591
-5.090000 -66.325378 -538.036743
-4.590000 -66.318413 -537.957031
-4.100000 -66.307076 -537.827576
-3.600000 -66.285789 -537.698914
-3.110000 -66.277069 -537.599304
-2.610000 -66.270096 -537.519592
-2.110000 -66.257523 -537.490601
-1.620000 -66.243576 -537.331177
-1.120000 -66.221413 -537.192627
-0.630000 -66.207466 -537.033203
-0.130000 -66.189659 -536.944397
0.360000 -66.180077 -536.834839
0.850000 -66.168747 -536.705322
1.350000 -66.154427 -536.656372
1.840000 -66.145706 -536.556763
2.340000 -66.150070 -536.606567
2.830000 -66.146584 -536.566772
3.330000 -66.144836 -536.546814
3.820000 -66.143967 -536.536865
4.310000 -66.145706 -536.556763
4.810000 -66.144836 -536.546814
5.300000 -66.150070 -536.606567
5.800000 -66.150940 -536.616577
6.290000 -66.166130 -536.675476
6.790000 -66.166130 -536.675476
7.280000 -66.155296 -536.666382
7.780000 -66.177460 -536.804932
8.270000 -66.173103 -536.755127
8.770000 -66.177460 -536.804932
9.260000 -66.187920 -536.924500
9.760000 -66.202240 -536.973450
10.250000 -66.213570 -537.102966
10.750000 -66.239220 -537.281372
11.250000 -66.249680 -537.400940
11.750000 -66.272713 -537.549500
12.250000 -66.279686 -537.629211
12.740000 -66.284912 -537.688965
13.240000 -66.283173 -537.669006
13.730000 -66.302719 -537.777771
14.230000 -66.305336 -537.807617
14.730000 -66.319283 -537.967041
15.230000 -66.342316 -538.115601
15.740000 -66.384521 -538.483276
16.240000 -66.421509 -538.791260
16.750000 -66.461098 -539.129089
17.260000 -66.511528 -539.476013
17.770000 -66.551125 -539.813843
18.270000 -66.578514 -540.012207
18.770000 -66.585487 -540.091919
19.270000 -66.612885 -540.290283
19.780001 -66.631187 -540.499451
20.290001 -66.680740 -540.836426
20.799999 -66.697304 -541.025696
21.299999 -66.727310 -541.253967
21.809999 -66.759064 -541.502136
22.330000 -66.813843 -541.898865
22.840000 -66.832146 -542.108093
23.340000 -66.851700 -542.216797
23.850000 -66.867386 -542.396118
24.360001 -66.901749 -542.674194
24.870001 -66.925659 -542.832703
25.379999 -66.952179 -543.021118
25.889999 -66.973099 -543.260193
26.389999 -66.991776 -543.358948
26.900000 -67.003105 -543.488403
27.410000 -67.033112 -543.716675
27.920000 -67.057022 -543.875183
28.430000 -67.070969 -544.034607
28.940001 -67.088768 -544.123352
29.450001 -67.120522 -544.371582
29.969999 -67.156631 -544.669556
30.480000 -67.172318 -544.848877
31.000000 -67.208427 -545.146851
31.520000 -67.237564 -545.365112
32.049999 -67.299324 -545.841553
32.580002 -67.365440 -546.367798
33.150002 -67.480736 -547.341492
33.709999 -67.596413 -548.204651
34.299999 -67.754791 -549.556030
34.880001 -67.910927 -550.767029
35.450001 -68.027969 -551.760559
36.040001 -68.165436 -552.872864
36.660000 -68.387688 -554.610107
37.270000 -68.556900 -555.970520
37.840000 -68.668716 -556.904297
38.540001 -68.983231 -559.466675
39.230000 -69.304230 -561.988281
39.950001 -69.650497 -564.798767
40.630001 -69.923683 -567.003357
41.180000 -69.960663 -567.311340
41.759998 -70.063759 -568.145508
42.360001 -70.179924 -569.129150
42.950001 -70.297340 -570.012268
43.540001 -70.380890 -570.737732
44.099998 -70.442650 -571.214172
44.689999 -70.543129 -572.018494
45.389999 -70.812828 -574.183167
46.080002 -71.055130 -576.149536
-52.090000 -67.353279 -542.213074
-51.490002 -67.220177 -541.150635
-50.930000 -67.146217 -540.534729
-50.400002 -67.090561 -540.128052
-49.869999 -67.053581 -539.820068
-49.349998 -67.024445 -539.601807
-48.830002 -66.988335 -539.303772
-48.299999 -66.952225 -539.005798
-47.790001 -66.925705 -538.817383
-47.279999 -66.910889 -538.648071
-46.759998 -66.883492 -538.449707
-46.270000 -66.882622 -538.439697
-45.750000 -66.856102 -538.251343
-45.240002 -66.840416 -538.072021
-44.750000 -66.839539 -538.062012
-44.250000 -66.825218 -538.013123
-43.750000 -66.826965 -538.033020
-43.259998 -66.843025 -538.101868
-42.750000 -66.819122 -537.943359
-42.250000 -66.813889 -537.883606
-41.759998 -66.820862 -537.963318
-41.270000 -66.820862 -537.963318
-40.779999 -66.841286 -538.081970
-40.290001 -66.843025 -538.101868
-39.790001 -66.842155 -538.091919
-39.299999 -66.847382 -538.151672
-38.810001 -66.859589 -538.291138
-38.320000 -66.873909 -538.340088
-37.840000 -66.893082 -538.559265
-37.360001 -66.916115 -538.707825
-36.869999 -66.941765 -538.886292
-36.389999 -66.955711 -539.045654
-35.889999 -66.956581 -539.055603
-35.400002 -66.977005 -539.174316
-34.910000 -66.982231 -539.234070
-34.419998 -66.989204 -539.313782
-33.930000 -67.012238 -539.462341
-33.439999 -67.030540 -539.671509
-32.959999 -67.058807 -539.879822
-32.470001 -67.079231 -539.998535
-31.980000 -67.095787 -540.187805
-31.500000 -67.121437 -540.366211
-31.010000 -67.132767 -540.495728
-30.520000 -67.155807 -540.644287
-30.030001 -67.177963 -540.782898
-29.530001 -67.186684 -540.882507
-29.049999 -67.218437 -541.130676
-28.559999 -67.229767 -541.260193
-28.070000 -67.252800 -541.408752
-27.570000 -67.260643 -541.498413
-27.080000 -67.283676 -541.646973
-26.590000 -67.290649 -541.726685
-26.090000 -67.295883 -541.786438
-25.600000 -67.313690 -541.875244
-25.100000 -67.314560 -541.885193
-24.600000 -67.313690 -541.875244
-24.100000 -67.300240 -541.836243
-23.590000 -67.295006 -541.776489
-23.090000 -67.288040 -541.696777
-22.590000 -67.281937 -541.627075
-22.090000 -67.264999 -541.548218
-21.580000 -67.256287 -541.448608
-21.080000 -67.249313 -541.368896
-20.580000 -67.225403 -541.210388
-20.070000 -67.214951 -541.090820
-19.570000 -67.192787 -540.952271
-19.070000 -67.184067 -540.852600
-18.570000 -67.166260 -540.763855
-18.070000 -67.159286 -540.684143
-17.570000 -67.154060 -540.624390
-17.070000 -67.150574 -540.584534
-16.570000 -67.133636 -540.505676
-16.070000 -67.124924 -540.406067
-15.560000 -67.101891 -540.257507
-15.060000 -67.090561 -540.128052
-14.560000 -67.068398 -539.989441
-14.060000 -67.057938 -539.869873
-13.560000 -67.033157 -539.701416
-13.060000 -67.023567 -539.591797
-12.560000 -67.000534 -539.443237
-12.060000 -66.996178 -539.393433
-11.560000 -66.989204 -539.313782
-11.060000 -66.968788 -539.195068
-10.560000 -66.965302 -539.155212
-10.060000 -66.953094 -539.015747
-9.570000 -66.950485 -538.985901
-9.070000 -66.922218 -538.777527
-8.570000 -66.901794 -538.658875
-8.070000 -66.891335 -538.539368
-7.570000 -66.884361 -538.459656
-7.080000 -66.863075 -538.330994
-6.580000 -66.862206 -538.321045
-6.080000 -66.852615 -538.211487
-5.590000 -66.844772 -538.121826
-5.090000 -66.822609 -537.983215
-4.590000 -66.816505 -537.913452
-4.100000 -66.790855 -537.735046
-3.600000 -66.787369 -537.695190
-3.110000 -66.781265 -537.625427
-2.610000 -66.760849 -537.506775
-2.110000 -66.758232 -537.476868
-1.620000 -66.745163 -537.327454
-1.120000 -66.722122 -537.178894
-0.630000 -66.711662 -537.059387
-0.130000 -66.689499 -536.920776
0.360000 -66.665596 -536.762268
0.850000 -66.661240 -536.712463
1.350000 -66.659492 -536.692505
1.840000 -66.654266 -536.632751
2.340000 -66.653397 -536.622803
2.830000 -66.656883 -536.662659
3.330000 -66.659492 -536.692505
3.820000 -66.662979 -536.732361
4.320000 -66.663849 -536.742310
4.810000 -66.663849 -536.742310
5.300000 -66.662109 -536.722412
5.800000 -66.659492 -536.692505
6.290000 -66.667336 -536.782166
6.790000 -66.681656 -536.831116
7.280000 -66.688629 -536.910828
7.780000 -66.690376 -536.930725
8.270000 -66.693863 -536.970581
8.770000 -66.692986 -536.960632
9.260000 -66.697350 -537.010437
9.760000 -66.724739 -537.208801
10.260000 -66.746902 -537.347412
10.760000 -66.755615 -537.447021
11.250000 -66.766953 -537.576538
11.750000 -66.778656 -537.595581
12.250000 -66.791725 -537.744995
12.740000 -66.794342 -537.774902
13.240000 -66.792603 -537.754944
13.740000 -66.796082 -537.794800
14.230000 -66.800446 -537.844604
14.740000 -66.848259 -538.161682
15.250000 -66.897438 -538.609070
15.760000 -66.955711 -539.045654
16.260000 -66.990074 -539.323730
16.770000 -67.057068 -539.859924
17.280001 -67.080971 -540.018433
17.780001 -67.094917 -540.177856
18.280001 -67.124054 -540.396118
18.790001 -67.159286 -540.684143
19.299999 -67.183197 -540.842651
19.799999 -67.200630 -541.041931
20.309999 -67.234123 -541.309998
20.830000 -67.291527 -541.736633
21.330000 -67.319786 -541.944946
21.840000 -67.347183 -542.143311
22.350000 -67.362869 -542.322632
22.850000 -67.382416 -542.431335
23.360001 -67.397232 -542.600708
23.870001 -67.427238 -542.828979
24.379999 -67.459862 -543.087097
24.889999 -67.481155 -543.215759
25.389999 -67.488129 -543.295410
25.900000 -67.501205 -543.444824
26.410000 -67.519882 -543.543579
26.920000 -67.549889 -543.771851
27.430000 -67.584251 -544.049927
27.940001 -67.592972 -544.149536
28.450001 -67.615135 -544.288147
28.959999 -67.632561 -544.487366
29.480000 -67.664314 -544.735535
29.990000 -67.689964 -544.914001
30.510000 -67.725204 -545.202026
31.020000 -67.756081 -545.440247
31.540001 -67.794807 -545.768127
32.080002 -67.858307 -546.264465
32.619999 -67.936623 -546.930176
33.180000 -68.051430 -547.783386
33.740002 -68.164108 -548.727173
34.320000 -68.300697 -549.829468
34.900002 -68.453354 -551.000610
35.470001 -68.571266 -552.004150
36.060001 -68.725662 -553.195251
36.680000 -68.930115 -554.843689
37.270000 -69.071938 -556.005737
37.830002 -69.157600 -556.640686
38.549999 -69.533005 -559.669495
39.230000 -69.811417 -561.933838
39.990002 -70.232895 -565.259766
40.709999 -70.577423 -568.050354
41.270000 -70.633949 -568.467041
41.860001 -70.740532 -569.341064
42.470001 -70.886711 -570.552917
43.040001 -70.948471 -571.029358
43.580002 -70.982834 -571.307434
44.169998 -71.083321 -572.111755
44.830002 -71.281670 -573.690430
45.529999 -71.546135 -575.795410
46.180000 -71.741867 -577.344238
-52.110001 -67.860970 -542.279053
-51.509998 -67.748283 -541.335266
-50.959999 -67.673447 -540.709412
-50.430000 -67.629120 -540.432251
-49.900002 -67.589531 -540.094421
-49.380001 -67.557777 -539.846252
-48.860001 -67.523415 -539.568176
-48.349998 -67.512077 -539.438660
-47.820000 -67.465141 -539.131592
-47.320000 -67.460777 -539.081787
-46.810001 -67.432518 -538.873474
-46.299999 -67.424675 -538.783813
-45.799999 -67.419441 -538.723999
-45.290001 -67.399025 -538.605347
-44.779999 -67.381592 -538.406128
-44.279999 -67.368141 -538.367126
-43.790001 -67.381592 -538.406128
-43.290001 -67.379845 -538.386169
-42.779999 -67.357681 -538.247559
-42.290001 -67.361168 -538.287415
-41.799999 -67.381592 -538.406128
-41.310001 -67.387695 -538.475830
-40.810001 -67.385948 -538.455933
-40.320000 -67.385948 -538.455933
-39.830002 -67.392921 -538.535583
-39.340000 -67.399895 -538.615295
-38.849998 -67.415955 -538.684143
-38.349998 -67.420319 -538.733948
-37.869999 -67.432518 -538.873474
-37.380001 -67.452065 -538.982178
-36.889999 -67.459908 -539.071838
-36.400002 -67.483818 -539.230347
-35.910000 -67.486427 -539.260193
-35.419998 -67.502991 -539.449524
-34.930000 -67.514694 -539.468567
-34.430000 -67.521667 -539.548218
-33.950001 -67.549065 -539.746582
-33.459999 -67.552551 -539.786438
-32.970001 -67.580811 -539.994812
-32.480000 -67.586914 -540.064514
-31.990000 -67.599113 -540.203979
-31.500000 -67.623894 -540.372498
-31.010000 -67.633476 -540.482056
-30.520000 -67.655647 -540.620667
-30.030001 -67.662621 -540.700317
-29.540001 -67.686523 -540.858887
-29.040001 -67.692627 -540.928589
-28.549999 -67.718277 -541.107056
-28.059999 -67.726120 -541.196716
-27.559999 -67.733093 -541.276367
-27.070000 -67.755257 -541.414978
-26.570000 -67.758743 -541.454834
-26.080000 -67.767456 -541.554443
-25.580000 -67.780029 -541.583496
-25.080000 -67.769203 -541.574402
-24.580000 -67.764839 -541.524597
-24.080000 -67.767456 -541.554443
-23.580000 -67.761353 -541.484741
-23.080000 -67.754379 -541.405029
-22.580000 -67.750900 -541.365173
-22.080000 -67.735703 -541.306274
-21.580000 -67.731346 -541.256470
-21.070000 -67.719147 -541.117004
-20.570000 -67.698723 -540.998352
-20.070000 -67.689140 -540.888733
-19.570000 -67.670464 -540.789978
-19.059999 -67.661743 -540.690369
-18.559999 -67.653900 -540.600708
-18.059999 -67.649544 -540.550903
-17.559999 -67.637840 -540.531860
-17.059999 -67.628250 -540.422302
-16.559999 -67.626511 -540.402344
-16.059999 -67.616920 -540.292786
-15.560000 -67.599113 -540.203979
-15.060000 -67.570847 -539.995667
-14.560000 -67.558647 -539.856201
-14.060000 -67.532997 -539.677734
-13.560000 -67.525154 -539.588074
-13.060000 -67.502991 -539.449524
-12.560000 -67.492531 -539.329956
-12.060000 -67.489914 -539.300049
-11.560000 -67.473854 -539.231201
-11.060000 -67.464264 -539.121643
-10.560000 -67.452934 -538.992126
-10.060000 -67.436874 -538.923279
-9.570000 -67.427284 -538.813660
-9.070000 -67.403381 -538.655151
-8.570000 -67.399025 -538.605347
-8.070000 -67.392921 -538.535583
-7.570000 -67.371628 -538.406982
-7.080000 -67.365524 -538.337219
-6.580000 -67.360298 -538.277466
-6.080000 -67.340752 -538.168762
-5.590000 -67.331161 -538.059204
-5.090000 -67.308998 -537.920593
-4.590000 -67.303772 -537.860840
-4.100000 -67.292442 -537.731323
-3.600000 -67.297668 -537.791077
-3.110000 -67.287209 -537.671509
-2.610000 -67.267662 -537.562805
-2.110000 -67.264175 -537.522949
-1.620000 -67.254585 -537.413391
-1.120000 -67.232422 -537.274780
-0.630000 -67.207649 -537.106323
-0.130000 -67.193703 -536.946899
0.360000 -67.191086 -536.917053
0.850000 -67.169792 -536.788391
1.350000 -67.168922 -536.778442
1.840000 -67.167175 -536.758545
2.340000 -67.168922 -536.778442
2.830000 -67.169792 -536.788391
3.330000 -67.175896 -536.858154
3.820000 -67.191086 -536.917053
4.320000 -67.200676 -537.026611
4.810000 -67.195442 -536.966858
5.310000 -67.198059 -536.996765
5.800000 -67.201546 -537.036560
6.300000 -67.195442 -536.966858
6.790000 -67.198059 -536.996765
7.290000 -67.204163 -537.066467
7.780000 -67.210258 -537.136230
8.280000 -67.225449 -537.195129
8.770000 -67.227196 -537.215027
9.270000 -67.239395 -537.354492
9.770000 -67.257202 -537.443298
10.260000 -67.263306 -537.513000
10.760000 -67.274635 -537.642517
11.260000 -67.288956 -537.691467
11.760000 -67.298538 -537.801025
12.250000 -67.302895 -537.850830
12.750000 -67.295929 -537.771179
13.240000 -67.295929 -537.771179
13.740000 -67.319832 -537.929688
14.240000 -67.337265 -538.128906
14.760000 -67.425545 -538.793762
15.270000 -67.485558 -539.250244
15.770000 -67.526901 -539.608032
16.280001 -67.562134 -539.896057
16.790001 -67.596497 -540.174072
17.290001 -67.631737 -540.462097
17.799999 -67.664360 -540.720276
18.299999 -67.692627 -540.928589
18.809999 -67.718277 -541.107056
19.320000 -67.748283 -541.335266
19.820000 -67.767456 -541.554443
20.330000 -67.814400 -541.861511
20.840000 -67.847893 -542.129639
21.350000 -67.856606 -542.229248
21.850000 -67.881386 -542.397705
22.360001 -67.914009 -542.655884
22.870001 -67.926208 -542.795349
23.379999 -67.959702 -543.063416
23.889999 -67.985352 -543.241882
24.389999 -67.991455 -543.311646
24.900000 -67.999298 -543.401306
25.400000 -68.016235 -543.480103
25.910000 -68.027565 -543.609619
26.420000 -68.054085 -543.798035
26.930000 -68.077995 -543.956543
27.440001 -68.098038 -544.185669
27.950001 -68.126305 -544.393982
28.469999 -68.151085 -544.562439
28.990000 -68.194160 -544.940125
29.500000 -68.217201 -545.088684
30.010000 -68.229401 -545.228149
30.520000 -68.261154 -545.476379
31.040001 -68.292030 -545.714539
31.559999 -68.342461 -546.061462
32.110001 -68.423393 -546.757080
32.650002 -68.507317 -547.372131
33.209999 -68.614769 -548.256104
33.770000 -68.716995 -549.080322
34.349998 -68.876617 -550.331177
34.930000 -69.011467 -551.413574
35.500000 -69.141960 -552.446106
36.090000 -69.279419 -553.558350
36.709999 -69.492958 -555.195984
37.270000 -69.579994 -555.961304
37.869999 -69.735260 -557.162354
38.590000 -70.101082 -560.081543
39.250000 -70.369034 -562.226379
40.090000 -70.924484 -566.624695
40.779999 -71.212860 -568.888184
41.330002 -71.261169 -569.325623
41.930000 -71.379456 -570.218750
42.570000 -71.576935 -571.787476
43.130001 -71.623505 -572.205017
43.680000 -71.655251 -572.453186
44.310001 -71.835297 -573.822693
44.939999 -71.984962 -575.074402
45.660000 -72.276825 -577.377747
-52.939999 -68.792244 -545.580444
-52.099998 -68.357323 -542.215576
-51.540001 -68.277260 -541.529907
-51.000000 -68.218987 -541.093323
-50.470001 -68.182877 -540.795349
