1401
53.560001 -18.330875 -538.933167
54.119999 -18.345936 -539.564270
54.680000 -18.367096 -540.265076
75.449997 -18.963116 -558.321838
75.830002 -18.929255 -557.361145
76.160004 -18.886559 -556.069946
76.470001 -18.846849 -554.698181
76.690002 -18.775148 -552.616516
76.910004 -18.713903 -550.654358
77.120003 -18.640457 -548.552795
77.379997 -18.584566 -546.881287
77.610001 -18.520332 -544.999756
77.930000 -18.484608 -543.788269
78.120003 -18.413776 -541.716553
78.290001 -18.341578 -539.514465
78.540001 -18.286556 -537.852905
78.910004 -18.254065 -537.022583
79.309998 -18.240747 -536.411438
79.750000 -18.223692 -536.101746
80.190002 -18.212238 -535.741333
80.650002 -18.204769 -535.541260
81.110001 -18.201658 -535.390930
81.599998 -18.207262 -535.340271
82.089996 -18.200787 -535.380981
82.610001 -18.206512 -535.561157
83.110001 -18.211742 -535.620911
83.599998 -18.212614 -535.630920
84.080002 -18.203897 -535.531311
84.540001 -18.202530 -535.400879
85.040001 -18.206017 -535.440735
85.529999 -18.208632 -535.470642
86.059998 -18.208754 -535.701538
86.620003 -18.227177 -536.141602
87.160004 -18.239004 -536.391479
87.559998 -18.222698 -535.860901
87.849998 -18.180496 -534.690125
88.269997 -18.164686 -534.279968
88.720001 -18.161079 -534.009216
89.169998 -18.155354 -533.829041
89.639999 -18.142279 -533.679626
90.120003 -18.139666 -533.649719
90.629997 -18.148380 -533.749329
91.120003 -18.149252 -533.759277
91.620003 -18.145391 -533.829895
92.129997 -18.155849 -533.949463
92.629997 -18.155476 -534.059875
93.160004 -18.162945 -534.260010
93.690002 -18.172155 -534.480042
94.230003 -18.180122 -534.800598
94.830002 -18.203402 -535.410889
95.519997 -18.239502 -536.511902
96.110001 -18.256680 -537.052490
96.650002 -18.260286 -537.323181
97.190002 -18.274729 -537.602966
97.739998 -18.278337 -537.873718
98.349998 -18.305973 -538.533813
99.010002 -18.334604 -539.434753
100.050003 -18.429708 -542.357605
-51.259998 -21.125309 -606.556946
-50.669998 -21.112986 -606.186584
-50.049999 -21.086596 -605.426025
-49.459999 -21.071655 -605.025818
-48.880001 -21.058460 -604.645508
-48.299999 -21.045761 -604.385620
-47.720001 -21.040411 -604.094971
-47.150002 -21.025969 -603.815186
-46.570000 -21.019747 -603.514587
-45.990002 -21.007423 -603.144226
-45.400002 -20.988998 -602.704163
-44.830002 -20.987133 -602.453369
-44.259998 -20.970078 -602.143677
-43.680000 -20.962982 -601.833130
-43.110001 -20.959373 -601.562378
-42.549999 -20.950163 -601.342346
-41.980000 -20.936592 -601.072510
-41.410000 -20.927380 -600.852478
-40.849998 -20.926010 -600.722107
-40.279999 -20.914185 -600.472168
-39.730000 -20.920660 -600.431458
-39.180000 -20.913687 -600.351746
-38.619999 -20.914063 -600.241333
-38.060001 -20.901859 -600.101868
-37.509998 -20.901859 -600.101868
-36.959999 -20.904474 -600.131714
-36.410000 -20.907465 -600.051147
-35.869999 -20.905348 -600.141724
-35.310001 -20.905722 -600.031250
-34.750000 -20.897005 -599.931641
-34.200001 -20.895638 -599.801270
-33.639999 -20.896011 -599.690796
-33.099998 -20.891279 -599.751465
-32.540001 -20.897757 -599.710693
-32.000000 -20.897381 -599.821167
-31.459999 -20.895264 -599.911682
-30.920000 -20.910952 -600.091003
-30.379999 -20.911943 -600.331848
-29.840000 -20.924643 -600.591736
-29.320000 -20.943939 -601.041748
-28.790001 -20.953274 -601.492676
-28.260000 -20.969084 -601.902832
-27.719999 -20.984894 -602.313049
-27.190001 -20.998089 -602.693298
-26.660000 -21.012156 -603.083557
-26.110001 -21.014893 -603.344360
-25.580000 -21.033691 -603.673950
-25.030001 -21.039417 -603.854126
-24.490000 -21.045143 -604.034302
-23.940001 -21.052612 -604.234436
-23.389999 -21.048752 -604.305054
-22.840000 -21.047880 -604.295105
-22.280001 -21.047880 -604.295105
-21.730000 -21.044394 -604.255249
-21.170000 -21.043898 -604.134827
-20.610001 -21.038668 -604.075073
-20.059999 -21.035557 -603.924744
-19.500000 -21.028959 -603.734619
-18.940001 -21.024977 -603.574341
-18.379999 -21.024479 -603.453918
-17.830000 -21.018753 -603.273743
-17.270000 -21.005680 -603.124329
-16.709999 -21.007797 -603.033752
-16.160000 -21.000826 -602.954102
-15.600000 -20.998585 -602.813721
-15.050000 -20.993357 -602.753967
-14.500000 -20.992859 -602.633545
-13.940000 -20.991491 -602.503174
-13.390000 -20.981903 -602.393616
-12.830000 -20.981407 -602.273193
-12.280000 -20.979168 -602.132813
-11.720000 -20.971323 -602.043213
-11.170000 -20.964725 -601.853027
-10.620000 -20.961615 -601.702759
-10.060000 -20.963732 -601.612183
-9.510000 -20.962860 -601.602234
-8.960000 -20.959373 -601.562378
-8.410000 -20.951530 -601.472717
-7.860000 -20.948420 -601.322449
-7.310000 -20.943190 -601.262695
-6.750000 -20.952280 -601.251831
-6.200000 -20.942694 -601.142273
-5.650000 -20.934353 -600.932190
-5.100000 -20.928625 -600.752014
-4.550000 -20.922028 -600.561829
-4.000000 -20.918543 -600.521973
-3.450000 -20.918543 -600.521973
-2.900000 -20.919415 -600.531982
-2.350000 -20.928129 -600.631592
-1.800000 -20.918543 -600.521973
-1.250000 -20.916302 -600.381653
-0.700000 -20.913191 -600.231384
-0.150000 -20.912695 -600.110962
0.400000 -20.905226 -599.910828
0.950000 -20.899500 -599.730652
1.500000 -20.894644 -599.560425
2.050000 -20.881075 -599.290588
2.590000 -20.873606 -599.090454
3.140000 -20.869621 -598.930176
3.690000 -20.860411 -598.710144
4.230000 -20.852940 -598.510071
4.780000 -20.842857 -598.280090
5.330000 -20.839745 -598.129761
5.870000 -20.839249 -598.009338
6.420000 -20.832651 -597.819214
6.960000 -20.828669 -597.658936
7.510000 -20.824310 -597.609131
8.060000 -20.819454 -597.438904
8.600000 -20.812859 -597.248779
9.140000 -20.807133 -597.068542
9.690000 -20.803148 -596.908325
10.230000 -20.797049 -596.838562
10.780000 -20.789579 -596.638428
11.320000 -20.789953 -596.528015
11.860000 -20.785971 -596.367737
12.410000 -20.772898 -596.218323
12.950000 -20.775015 -596.127808
13.490000 -20.769289 -595.947571
14.030000 -20.761444 -595.857910
14.580000 -20.758333 -595.707642
15.120000 -20.758707 -595.597168
15.660000 -20.746881 -595.347290
16.190001 -20.733311 -595.077393
16.740000 -20.741156 -595.167053
17.290001 -20.746881 -595.347290
17.840000 -20.748249 -595.477661
18.389999 -20.753479 -595.537415
18.940001 -20.759581 -595.607178
19.480000 -20.759205 -595.717590
20.030001 -20.759703 -595.838013
20.590000 -20.767172 -596.038147
21.139999 -20.778997 -596.288025
21.700001 -20.790449 -596.648438
22.260000 -20.796673 -596.949036
22.820000 -20.809868 -597.329346
23.379999 -20.822191 -597.699646
23.950001 -20.844103 -598.179565
24.520000 -20.858665 -598.690247
25.090000 -20.878084 -599.371155
25.670000 -20.904850 -600.021301
26.250000 -20.924269 -600.702209
26.830000 -20.949289 -601.332397
28.500000 -20.211479 -579.704407
28.990000 -20.188078 -578.863220
29.459999 -20.142015 -577.763062
29.950001 -20.124716 -576.991638
30.410000 -20.075542 -575.741150
30.860001 -20.026249 -574.259827
31.320000 -19.991020 -573.168762
31.830000 -19.982182 -572.838257
32.320000 -19.958529 -572.338440
32.830002 -19.953176 -572.047791
33.340000 -19.943092 -571.817810
33.849998 -19.936871 -571.517212
34.349998 -19.921556 -571.227417
34.869999 -19.925419 -571.156799
35.380001 -19.911472 -570.997437
35.900002 -19.911472 -570.997437
36.419998 -19.917950 -570.956726
36.950001 -19.911472 -570.997437
37.490002 -19.919813 -571.207520
38.020000 -19.929026 -571.427551
38.560001 -19.936497 -571.627625
39.110001 -19.948818 -571.997986
39.650002 -19.963261 -572.277771
40.220001 -19.972219 -572.839111
40.810001 -20.010439 -573.849670
41.410000 -20.049526 -574.870117
42.060001 -20.102804 -576.511719
42.689999 -20.145126 -577.913391
43.299999 -20.180731 -578.893982
49.349998 -18.725649 -535.987549
49.830002 -18.718678 -535.907837
50.310001 -18.709961 -535.808228
50.820000 -18.716558 -535.998352
51.330002 -18.727514 -536.238342
51.860001 -18.737225 -536.578796
52.400002 -18.753531 -537.109375
52.950001 -18.772451 -537.669861
53.500000 -18.798346 -538.310059
54.060001 -18.825981 -538.970154
54.650002 -18.854612 -539.871094
75.000000 -19.493958 -558.767273
75.389999 -19.462711 -557.836426
75.779999 -19.426735 -556.966248
76.129997 -19.387148 -555.825378
76.419998 -19.342587 -554.283386
76.660004 -19.273994 -552.352051
76.940002 -19.217728 -550.791016
77.129997 -19.146399 -548.598877
77.389999 -19.092251 -546.947327
77.650002 -19.034615 -545.255859
77.949997 -18.985815 -543.894958
78.129997 -18.907141 -541.733582
78.300003 -18.834070 -539.521545
78.570000 -18.779547 -537.980408
78.940002 -18.758760 -537.169128
79.349998 -18.734234 -536.659363
79.779999 -18.727514 -536.238342
80.230003 -18.713074 -535.958557
80.680000 -18.703861 -535.738525
81.150002 -18.700748 -535.588196
81.620003 -18.691162 -535.478638
82.120003 -18.693777 -535.508484
82.629997 -18.705978 -535.647949
83.120003 -18.696888 -535.658813
83.589996 -18.692905 -535.498535
84.059998 -18.693279 -535.388062
84.550003 -18.692408 -535.378113
85.040001 -18.695023 -535.408020
85.589996 -18.704733 -535.748474
86.120003 -18.709211 -536.029114
86.639999 -18.714937 -536.209351
87.139999 -18.715809 -536.219299
87.610001 -18.716185 -536.108826
87.949997 -18.686682 -535.197937
88.320000 -18.664648 -534.487183
88.750000 -18.648464 -534.187439
89.199997 -18.639252 -533.967407
89.680000 -18.642242 -533.886841
90.160004 -18.636141 -533.817078
90.650002 -18.640499 -533.866882
91.150002 -18.642242 -533.886841
91.650002 -18.639252 -533.967407
92.150002 -18.647097 -534.057068
92.660004 -18.644108 -534.137634
93.190002 -18.656805 -534.397522
93.730003 -18.670376 -534.667358
94.260002 -18.673985 -534.938049
94.839996 -18.687675 -535.438782
95.459999 -18.719669 -536.148682
96.070000 -18.734732 -536.779785
96.629997 -18.747927 -537.160095
97.180000 -18.756763 -537.490540
97.760002 -18.778673 -537.970459
98.410004 -18.809423 -538.780884
99.089996 -18.840294 -539.822144
100.139999 -18.936268 -542.754944
-51.310001 -21.693880 -607.089417
-50.720001 -21.688528 -606.798767
-50.119999 -21.672222 -606.268188
-49.529999 -21.652925 -605.818115
-48.950001 -21.644960 -605.497620
-48.380001 -21.632757 -605.358154
-47.799999 -21.625664 -605.047607
-47.230000 -21.616451 -604.827576
-46.650002 -21.602385 -604.437317
-46.070000 -21.590061 -604.066956
-45.480000 -21.575994 -603.676697
-44.910000 -21.566782 -603.456665
-44.330002 -21.554459 -603.086304
-43.759998 -21.549107 -602.795715
-43.189999 -21.534664 -602.515869
-42.619999 -21.529812 -602.345642
-42.049999 -21.522717 -602.035095
-41.490002 -21.516617 -601.965393
-40.919998 -21.507778 -601.634888
-40.369999 -21.512136 -601.684692
-39.799999 -21.502924 -601.464661
-39.250000 -21.495951 -601.384949
-38.680000 -21.488482 -601.184875
-38.130001 -21.491470 -601.104248
-37.580002 -21.489729 -601.084351
-37.020000 -21.486242 -601.044495
-36.459999 -21.483131 -600.894226
-35.910000 -21.481762 -600.763855
-35.349998 -21.474791 -600.684143
-34.790001 -21.469065 -600.503967
-34.230000 -21.470310 -600.403442
-33.689999 -21.468191 -600.493958
-33.130001 -21.465080 -600.343689
-32.580002 -21.465952 -600.353638
-32.040001 -21.466450 -600.474060
-31.500000 -21.470432 -600.634338
-30.959999 -21.483505 -600.783752
-30.420000 -21.487986 -601.064453
-29.879999 -21.503298 -601.354187
-29.350000 -21.509521 -601.654785
-28.809999 -21.519230 -601.995239
-28.280001 -21.536287 -602.304932
-27.740000 -21.540766 -602.585632
-27.200001 -21.549604 -602.916077
-26.660000 -21.562302 -603.175964
-26.120001 -21.579359 -603.485657
-25.580000 -21.584213 -603.655884
-25.030001 -21.592554 -603.865967
-24.490000 -21.594793 -604.006287
-23.940001 -21.599648 -604.176514
-23.389999 -21.600519 -604.186523
-22.830000 -21.602262 -604.206421
-22.280001 -21.597904 -604.156616
-21.719999 -21.594419 -604.116760
-21.170000 -21.596537 -604.026245
-20.610001 -21.586950 -603.916687
-20.049999 -21.582094 -603.746460
-19.500000 -21.582470 -603.635986
-18.940001 -21.576744 -603.455811
-18.379999 -21.574129 -603.425903
-17.830000 -21.571018 -603.275635
-17.270000 -21.565292 -603.095398
-16.709999 -21.553963 -602.965942
-16.160000 -21.553963 -602.965942
-15.600000 -21.544748 -602.745911
-15.050000 -21.551226 -602.705139
-14.500000 -21.540766 -602.585632
-13.940000 -21.541142 -602.475159
-13.390000 -21.538900 -602.334839
-12.830000 -21.531057 -602.245178
-12.280000 -21.532305 -602.144653
-11.730000 -21.523588 -602.045044
-11.170000 -21.519606 -601.884766
-10.620000 -21.511761 -601.795166
-10.070000 -21.517365 -601.744446
-9.510000 -21.510393 -601.664734
-8.960000 -21.509024 -601.534363
-8.410000 -21.509895 -601.544373
-7.860000 -21.500309 -601.434753
-7.310000 -21.503298 -601.354187
-6.760000 -21.495455 -601.264526
-6.200000 -21.501930 -601.223816
-5.650000 -21.494461 -601.023682
-5.100000 -21.481762 -600.763855
-4.550000 -21.471678 -600.533813
-4.000000 -21.473797 -600.443298
-3.450000 -21.469065 -600.503967
-2.900000 -21.473421 -600.553772
-2.350000 -21.479523 -600.623474
-1.800000 -21.475164 -600.573669
-1.250000 -21.471182 -600.413391
-0.700000 -21.462465 -600.313782
-0.150000 -21.456739 -600.133606
0.400000 -21.452757 -599.973328
0.950000 -21.444416 -599.763306
1.500000 -21.441305 -599.612976
2.050000 -21.428606 -599.353088
2.590000 -21.423752 -599.182861
3.140000 -21.412796 -598.942932
3.690000 -21.408813 -598.782654
4.240000 -21.405703 -598.632324
4.780000 -21.393875 -598.382446
5.330000 -21.393753 -598.151550
5.870000 -21.386782 -598.071838
6.420000 -21.382797 -597.911621
6.970000 -21.381430 -597.781250
7.510000 -21.369228 -597.641785
8.060000 -21.369602 -597.531311
8.600000 -21.363876 -597.351135
9.150000 -21.352049 -597.101196
9.690000 -21.348938 -596.950867
10.230000 -21.338478 -596.831360
10.780000 -21.341469 -596.750793
11.320000 -21.331011 -596.631226
11.870000 -21.328770 -596.490906
12.410000 -21.330015 -596.390442
12.950000 -21.320805 -596.170349
13.490000 -21.312090 -596.070740
14.040000 -21.315079 -595.990173
14.580000 -21.309849 -595.930420
15.120000 -21.304995 -595.760193
15.660000 -21.299269 -595.580017
16.209999 -21.297899 -595.449646
16.750000 -21.290552 -595.480408
17.299999 -21.305368 -595.649719
17.850000 -21.302380 -595.730286
18.400000 -21.304995 -595.760193
18.940001 -21.303251 -595.740295
19.490000 -21.311094 -595.829956
20.040001 -21.314207 -595.980225
20.590000 -21.323420 -596.200256
21.139999 -21.324787 -596.330627
21.700001 -21.337111 -596.700989
22.260000 -21.349810 -596.960876
22.820000 -21.356529 -597.381897
23.379999 -21.378815 -597.751343
23.950001 -21.392881 -598.141602
24.520000 -21.407446 -598.652283
25.090000 -21.423376 -599.293335
25.660000 -21.444416 -599.763306
26.240000 -21.471182 -600.413391
26.820000 -21.486242 -601.044495
28.540001 -20.770584 -580.358154
29.010000 -20.726641 -579.167480
29.480000 -20.685808 -578.127075
29.959999 -20.657179 -577.226135
30.430000 -20.618464 -576.095215
30.900000 -20.575018 -575.024902
31.370001 -20.538046 -573.913879
31.860001 -20.519997 -573.363403
32.360001 -20.503315 -572.943237
32.869999 -20.492359 -572.703308
33.380001 -20.493980 -572.492310
33.900002 -20.487383 -572.302185
34.410000 -20.474310 -572.152771
34.919998 -20.472445 -571.901978
35.430000 -20.460243 -571.762512
35.959999 -20.460243 -571.762512
36.470001 -20.464104 -571.691895
37.000000 -20.461115 -571.772461
37.540001 -20.464226 -571.922791
38.070000 -20.479042 -572.092102
38.610001 -20.480036 -572.332947
39.150002 -20.487505 -572.533081
39.700001 -20.504187 -572.953186
40.270000 -20.527466 -573.563477
40.880001 -20.565308 -574.684448
41.500000 -20.610620 -576.005554
42.119999 -20.656307 -577.216187
42.709999 -20.682323 -578.087219
43.240002 -20.688423 -578.156921
74.110001 -20.037619 -559.703430
74.519997 -20.006870 -558.893066
74.930000 -19.985708 -558.192200
75.339996 -19.953714 -557.482300
75.739998 -19.930313 -556.641174
76.070000 -19.877653 -555.350830
76.410004 -19.836325 -554.190002
76.660004 -19.774708 -552.338318
76.940002 -19.724915 -550.736572
77.169998 -19.651590 -548.865845
77.419998 -19.594330 -547.063965
77.690002 -19.534576 -545.463074
77.970001 -19.486153 -543.991699
78.129997 -19.405237 -541.690002
78.320000 -19.336151 -539.638245
78.589996 -19.282497 -538.107056
78.959999 -19.250877 -537.286743
79.379997 -19.228968 -536.806824
79.830002 -19.224487 -536.526123
80.269997 -19.207432 -536.216431
80.730003 -19.205566 -535.965637
81.190002 -19.193363 -535.826172
81.669998 -19.193739 -535.715698
82.160004 -19.193739 -535.715698
82.650002 -19.195482 -535.735657
83.139999 -19.194611 -535.725647
83.599998 -19.188013 -535.535522
84.059998 -19.183159 -535.365295
84.570000 -19.183655 -535.485718
85.139999 -19.198219 -535.996399
85.730003 -19.218012 -536.566833
86.220001 -19.221498 -536.606689
86.680000 -19.213158 -536.396606
87.110001 -19.199963 -536.016296
87.570000 -19.194237 -535.836121
87.970001 -19.179672 -535.325439
88.360001 -19.153778 -534.685303
88.779999 -19.141455 -534.314941
89.239998 -19.137472 -534.154663
89.720001 -19.131371 -534.084961
90.199997 -19.136974 -534.034241
90.699997 -19.132242 -534.094910
91.199997 -19.137472 -534.154663
91.690002 -19.138344 -534.164612
92.199997 -19.137096 -534.265137
92.709999 -19.148426 -534.394653
93.239998 -19.157639 -534.614685
93.760002 -19.155148 -534.815674
94.300003 -19.171331 -535.115356
94.860001 -19.182783 -535.475769
95.449997 -19.202578 -536.046204
96.050003 -19.222368 -536.616638
96.620003 -19.240793 -537.056702
97.209999 -19.257973 -537.597290
97.800003 -19.276022 -538.147827
98.449997 -19.309385 -538.988098
99.209999 -19.356066 -540.439514
100.180000 -19.442705 -542.921448
-50.799999 -22.272413 -607.621033
-50.200001 -22.255236 -607.080444
-49.599998 -22.232452 -606.590576
-49.029999 -22.224112 -606.380493
-48.459999 -22.222744 -606.250122
-47.880001 -22.213036 -605.909668
-47.310001 -22.208181 -605.739441
-46.730000 -22.187637 -605.389893
-46.139999 -22.176186 -605.029541
-45.549999 -22.162495 -604.528809
-44.980000 -22.147181 -604.239075
-44.400002 -22.143572 -603.968323
-43.820000 -22.134735 -603.637878
-43.259998 -22.126394 -603.427795
-42.689999 -22.112450 -603.268372
-42.119999 -22.108841 -602.997681
-41.549999 -22.096144 -602.737793
-40.990002 -22.093031 -602.587463
-40.430000 -22.093407 -602.477051
-39.869999 -22.082947 -602.357483
-39.310001 -22.082451 -602.237061
-38.740002 -22.076723 -602.056885
-38.189999 -22.068008 -601.957275
-37.630001 -22.069256 -601.856812
-37.070000 -22.064402 -601.686584
-36.500000 -22.052574 -601.436646
-35.950001 -22.046473 -601.366882
-35.389999 -22.045977 -601.246521
-34.830002 -22.039875 -601.176758
-34.270000 -22.039377 -601.056335
-33.720001 -22.035021 -601.006531
-33.169998 -22.040251 -601.066284
-32.619999 -22.040251 -601.066284
-32.080002 -22.038132 -601.156860
-31.540001 -22.051205 -601.306274
-30.990000 -22.056061 -601.476501
-30.450001 -22.060043 -601.636780
-29.910000 -22.070997 -601.876709
-29.370001 -22.079338 -602.086792
-28.830000 -22.088551 -602.306824
-28.290001 -22.094774 -602.607422
-27.750000 -22.103987 -602.827454
-27.209999 -22.109339 -603.118103
-26.670000 -22.119423 -603.348083
-26.129999 -22.126890 -603.548218
-25.580000 -22.130875 -603.708435
-25.030001 -22.142204 -603.837952
-24.490000 -22.146187 -603.998230
-23.940001 -22.151417 -604.057983
-23.389999 -22.147554 -604.128601
-22.830000 -22.144070 -604.088745
-22.280001 -22.152288 -604.067932
-21.719999 -22.147058 -604.008179
-21.170000 -22.140959 -603.938477
-20.610001 -22.137846 -603.788147
-20.049999 -22.132120 -603.607971
-19.490000 -22.126019 -603.538208
-18.930000 -22.117680 -603.328186
-18.379999 -22.116808 -603.318176
-17.820000 -22.118427 -603.107239
-17.270000 -22.116686 -603.087341
-16.709999 -22.106226 -602.967773
-16.160000 -22.106602 -602.857361
-15.600000 -22.098757 -602.767700
-15.050000 -22.103491 -602.707031
-14.500000 -22.093031 -602.587463
-13.940000 -22.087305 -602.407288
-13.390000 -22.082947 -602.357483
-12.830000 -22.085066 -602.266968
-12.280000 -22.075478 -602.157410
-11.730000 -22.074982 -602.036987
-11.170000 -22.071871 -601.886658
-10.620000 -22.064026 -601.796997
-10.070000 -22.067886 -601.726379
-9.520000 -22.067015 -601.716431
-8.960000 -22.060913 -601.646729
-8.410000 -22.063032 -601.556213
-7.860000 -22.052574 -601.436646
-7.310000 -22.049959 -601.406738
-6.760000 -22.050335 -601.296326
-6.210000 -22.052950 -601.326172
-5.650000 -22.046350 -601.136047
-5.100000 -22.031038 -600.846252
-4.550000 -22.022200 -600.515808
-4.000000 -22.016972 -600.455994
-3.450000 -22.021330 -600.505798
-2.900000 -22.020082 -600.606323
-2.350000 -22.026182 -600.676025
-1.800000 -22.029173 -600.595459
-1.250000 -22.020456 -600.495850
-0.700000 -22.020832 -600.385376
-0.150000 -22.009005 -600.135498
0.400000 -22.005022 -599.975220
0.950000 -22.001040 -599.814941
1.500000 -21.986221 -599.645630
2.050000 -21.982615 -599.374878
2.590000 -21.971659 -599.134949
3.140000 -21.968548 -598.984619
3.690000 -21.961950 -598.794495
4.240000 -21.957094 -598.624268
4.780000 -21.943150 -598.464844
5.330000 -21.943899 -598.243958
5.870000 -21.935558 -598.033875
6.420000 -21.928587 -597.954224
6.970000 -21.929832 -597.853699
7.510000 -21.924107 -597.673523
8.060000 -21.912777 -597.544006
8.600000 -21.905308 -597.343872
9.150000 -21.901325 -597.183655
9.690000 -21.886883 -596.903809
10.230000 -21.886387 -596.783447
10.780000 -21.886761 -596.672974
11.320000 -21.877174 -596.563354
11.870000 -21.879292 -596.472839
12.410000 -21.875807 -596.432983
12.950000 -21.873566 -596.292664
13.500000 -21.860493 -596.143250
14.040000 -21.860867 -596.032776
14.590000 -21.856508 -595.982971
15.130000 -21.856508 -595.982971
15.670000 -21.847298 -595.762939
16.219999 -21.847298 -595.762939
16.760000 -21.848169 -595.772888
17.309999 -21.854271 -595.842651
17.860001 -21.854271 -595.842651
18.400000 -21.849913 -595.792847
18.950001 -21.852152 -595.933167
19.500000 -21.860867 -596.032776
20.049999 -21.860493 -596.143250
20.600000 -21.869207 -596.242859
21.150000 -21.879292 -596.472839
21.709999 -21.883772 -596.753540
22.260000 -21.894728 -596.993469
22.820000 -21.902693 -597.314026
23.379999 -21.919748 -597.623718
23.950001 -21.934313 -598.134399
24.520000 -21.957094 -598.624268
25.090000 -21.976889 -599.194702
25.660000 -21.990955 -599.584961
26.230000 -22.010748 -600.155396
26.790001 -22.019960 -600.375427
28.070000 -21.343010 -581.623108
28.549999 -21.310020 -580.672363
29.030001 -21.270060 -579.641907
29.500000 -21.228731 -578.481079
29.990000 -21.194496 -577.630859
30.459999 -21.167112 -576.629395
30.940001 -21.127151 -575.598999
31.410000 -21.087687 -574.688965
31.910000 -21.071381 -574.158325
32.400002 -21.055075 -573.627747
32.910000 -21.041504 -573.357910
33.419998 -21.040510 -573.117065
33.939999 -21.024822 -572.937744
34.450001 -21.021711 -572.787476
34.970001 -21.022085 -572.677002
35.480000 -21.010756 -572.547485
36.000000 -21.011129 -572.437073
36.529999 -21.013744 -572.466919
37.049999 -21.015488 -572.486877
37.580002 -21.018103 -572.516724
38.099998 -21.010756 -572.547485
38.639999 -21.020344 -572.657104
39.189999 -21.031796 -573.017456
39.750000 -21.048973 -573.558044
40.330002 -21.076235 -574.328552
40.950001 -21.127151 -575.598999
41.560001 -21.167234 -576.860291
42.150002 -21.191881 -577.600952
42.669998 -21.191385 -577.480530
49.700001 -19.642662 -534.421692
50.200001 -19.644032 -534.552063
50.680000 -19.648764 -534.491394
73.629997 -20.554020 -559.869080
74.040001 -20.527628 -559.108459
74.449997 -20.493891 -558.378662
74.879997 -20.474098 -557.808167
75.290001 -20.448580 -557.057556
75.709999 -20.428289 -556.366699
76.059998 -20.381355 -555.256592
76.400002 -20.346502 -554.055054
76.680000 -20.287621 -552.464111
76.949997 -20.229113 -550.762756
77.190002 -20.156660 -548.901978
77.470001 -20.103008 -547.370789
77.699997 -20.032299 -545.529968
77.989998 -19.983875 -544.058594
78.120003 -19.898106 -541.586670
78.349998 -19.830011 -539.775696
78.629997 -19.774240 -538.335083
79.010002 -19.749594 -537.594421
79.419998 -19.730673 -537.033936
79.860001 -19.721834 -536.703430
80.320000 -19.710880 -536.463501
80.790001 -19.708639 -536.323120
81.239998 -19.695942 -536.063293
81.709999 -19.696316 -535.952820
82.190002 -19.690214 -535.883057
82.690002 -19.695444 -535.942871
83.180000 -19.694572 -535.932861
83.690002 -19.698557 -536.093140
84.250000 -19.715237 -536.513306
84.779999 -19.717974 -536.774048
85.269997 -19.717102 -536.764099
85.739998 -19.713120 -536.603821
86.199997 -19.705650 -536.403687
86.650002 -19.695566 -536.173706
87.110001 -19.691584 -536.013428
87.589996 -19.691088 -535.893066
88.019997 -19.670544 -535.543518
88.400002 -19.657227 -534.932312
88.830002 -19.644032 -534.552063
89.290001 -19.629215 -534.382690
89.760002 -19.629589 -534.272217
90.239998 -19.624361 -534.212463
90.730003 -19.627848 -534.252319
91.239998 -19.637434 -534.361877
91.730003 -19.636562 -534.351929
92.239998 -19.635317 -534.452393
92.760002 -19.640171 -534.622620
93.269997 -19.643282 -534.772949
93.800003 -19.655109 -535.022888
94.339996 -19.667809 -535.282776
94.910004 -19.677141 -535.733643
95.470001 -19.697683 -536.083191
96.070000 -19.710131 -536.684387
96.650002 -19.732912 -537.174255
97.239998 -19.750961 -537.724792
97.839996 -19.771627 -538.305176
98.540001 -19.810341 -539.436157
99.339996 -19.873581 -541.076843
100.250000 -19.953999 -543.258179
-50.860001 -22.854931 -608.312866
-50.299999 -22.853188 -608.292969
-49.709999 -22.839121 -607.902710
-49.110001 -22.821072 -607.352173
-48.529999 -22.802271 -607.022583
-47.950001 -22.795177 -606.711975
-47.380001 -22.792936 -606.571655
-46.799999 -22.778496 -606.291870
-46.220001 -22.767916 -605.941406
-45.639999 -22.757334 -605.591003
-45.049999 -22.744139 -605.210754
-44.470001 -22.731815 -604.840393
-43.910000 -22.719612 -604.700928
-43.330002 -22.708658 -604.460938
-42.759998 -22.700691 -604.140442
-42.189999 -22.688866 -603.890503
-41.630001 -22.690983 -603.799988
-41.070000 -22.681396 -603.690430
-40.509998 -22.680899 -603.570007
-39.930000 -22.667330 -603.300171
-39.380001 -22.673805 -603.259460
-38.810001 -22.666334 -603.059326
-38.250000 -22.659739 -602.869202
-37.680000 -22.640938 -602.539551
-37.110001 -22.633469 -602.339417
-36.540001 -22.629862 -602.068726
-35.980000 -22.617659 -601.929260
-35.430000 -22.622393 -601.868591
-34.869999 -22.616291 -601.798889
-34.320000 -22.608446 -601.709229
-33.759998 -22.608446 -601.709229
-33.209999 -22.614052 -601.658569
-32.660000 -22.611061 -601.739136
-32.119999 -22.622393 -601.868591
-31.570000 -22.616789 -601.919312
-31.030001 -22.630732 -602.078674
-30.480000 -22.625999 -602.139343
-29.930000 -22.635588 -602.248901
-29.389999 -22.641314 -602.429077
-28.850000 -22.653139 -602.679016
-28.309999 -22.659739 -602.869202
-27.770000 -22.662474 -603.129944
-27.230000 -22.670815 -603.340027
-26.680000 -22.683018 -603.479492
-26.129999 -22.682642 -603.589905
-25.580000 -22.684881 -603.730286
-25.040001 -22.692350 -603.930359
-24.490000 -22.698452 -604.000122
-23.940001 -22.697580 -603.990112
-23.389999 -22.705423 -604.079773
-22.830000 -22.702810 -604.049927
-22.280001 -22.698452 -604.000122
-21.719999 -22.692350 -603.930359
-21.160000 -22.690983 -603.799988
-20.600000 -22.686129 -603.629761
-20.049999 -22.678284 -603.540100
-19.490000 -22.679531 -603.439636
-18.940001 -22.671686 -603.349976
-18.379999 -22.673805 -603.259460
-17.830000 -22.662474 -603.129944
-17.270000 -22.668077 -603.079224
-16.709999 -22.664095 -602.919006
-16.160000 -22.657995 -602.849243
-15.610000 -22.652765 -602.789490
-15.050000 -22.648783 -602.629211
-14.500000 -22.649654 -602.639160
-13.940000 -22.647413 -602.498840
-13.390000 -22.634340 -602.349426
-12.840000 -22.637329 -602.268860
-12.280000 -22.635588 -602.248901
-11.730000 -22.634218 -602.118530
-11.170000 -22.619402 -601.949158
-10.620000 -22.625877 -601.908447
-10.070000 -22.617163 -601.808838
-9.520000 -22.620649 -601.848694
-8.970000 -22.621023 -601.738220
-8.410000 -22.619280 -601.718323
-7.860000 -22.609694 -601.608765
-7.310000 -22.613554 -601.538147
-6.760000 -22.609196 -601.488342
-6.210000 -22.600481 -601.388733
-5.660000 -22.599983 -601.268311
-5.100000 -22.597744 -601.127930
-4.550000 -22.576706 -600.658020
-4.000000 -22.568861 -600.568359
-3.450000 -22.581934 -600.717773
-2.900000 -22.579817 -600.808289
-2.350000 -22.583303 -600.848145
-1.800000 -22.576706 -600.658020
-1.250000 -22.572348 -600.608215
-0.700000 -22.574465 -600.517639
-0.150000 -22.564381 -600.287659
0.400000 -22.552553 -600.037720
0.950000 -22.541599 -599.797791
1.500000 -22.544588 -599.717224
2.050000 -22.526661 -599.397583
2.600000 -22.529650 -599.317017
3.140000 -22.519566 -599.086975
3.690000 -22.515583 -598.926758
4.240000 -22.508114 -598.726624
4.780000 -22.502388 -598.546448
5.330000 -22.489313 -598.397034
5.880000 -22.487946 -598.266602
6.420000 -22.476992 -598.026672
6.970000 -22.477365 -597.916199
7.510000 -22.474255 -597.765930
8.060000 -22.460308 -597.606506
8.600000 -22.456326 -597.446289
9.150000 -22.448856 -597.246155
9.690000 -22.446119 -596.985413
10.240000 -22.433920 -596.845947
10.780000 -22.429064 -596.675720
11.320000 -22.425577 -596.635864
11.870000 -22.428568 -596.555298
12.410000 -22.425953 -596.525391
12.960000 -22.415495 -596.405884
13.500000 -22.415869 -596.295410
14.050000 -22.415373 -596.174988
14.590000 -22.411015 -596.125183
15.130000 -22.404913 -596.055481
15.680000 -22.405785 -596.065430
16.219999 -22.403170 -596.035522
16.770000 -22.407528 -596.085327
17.309999 -22.407904 -595.974915
17.860001 -22.400555 -596.005615
18.410000 -22.410143 -596.115234
18.959999 -22.411886 -596.135132
19.510000 -22.409767 -596.225708
20.049999 -22.414997 -596.285461
20.610001 -22.419851 -596.455688
21.160000 -22.427320 -596.655762
21.709999 -22.432175 -596.825989
22.270000 -22.444874 -597.085876
22.830000 -22.454582 -597.426331
23.389999 -22.471640 -597.736023
23.959999 -22.486202 -598.246704
24.520000 -22.502012 -598.656921
25.090000 -22.521309 -599.106934
25.650000 -22.531017 -599.447388
26.219999 -22.545086 -599.837646
28.059999 -21.869623 -581.446533
28.559999 -21.838499 -580.746582
29.049999 -21.813852 -580.005920
29.530001 -21.772524 -578.845093
30.010000 -21.743519 -578.054626
30.490000 -21.713144 -577.133728
30.980000 -21.681524 -576.313354
31.459999 -21.652519 -575.522888
31.959999 -21.627123 -575.003113
32.450001 -21.610815 -574.472534
32.959999 -21.596748 -574.082275
33.470001 -21.586664 -573.852295
33.980000 -21.583553 -573.701965
34.500000 -21.576956 -573.511841
35.020000 -21.567369 -573.402222
35.529999 -21.560772 -573.212097
36.060001 -21.565128 -573.261902
36.580002 -21.562515 -573.231995
37.099998 -21.561146 -573.101624
37.619999 -21.562017 -573.111633
38.150002 -21.562017 -573.111633
38.689999 -21.564754 -573.372375
39.240002 -21.579693 -573.772583
39.820000 -21.616045 -574.532288
40.400002 -21.637703 -575.353516
41.009998 -21.683765 -576.453735
41.580002 -21.701815 -577.004211
42.110001 -21.707916 -577.073975
49.150002 -20.103163 -533.718872
49.619999 -20.097437 -533.538696
50.099998 -20.095694 -533.518738
50.599998 -20.102665 -533.598450
51.110001 -20.109262 -533.788574
51.619999 -20.115486 -534.089172
52.139999 -20.129927 -534.369019
52.680000 -20.143620 -534.869690
72.750000 -21.106398 -560.904846
73.139999 -21.069548 -560.024719
73.550003 -21.041414 -559.244202
74.000000 -21.021246 -558.784241
74.419998 -21.000086 -558.083374
74.860001 -20.974688 -557.563660
75.269997 -20.950912 -556.832947
75.690002 -20.923275 -556.172852
76.040001 -20.886305 -555.061829
76.410004 -20.848957 -554.061279
76.680000 -20.784845 -552.410583
76.980003 -20.739037 -550.969055
77.220001 -20.664843 -549.088379
77.510002 -20.613804 -547.587097
77.739998 -20.540480 -545.716370
77.989998 -20.485458 -544.054871
78.129997 -20.390600 -541.593750
78.370003 -20.326862 -539.832642
78.680000 -20.280306 -538.612061
79.059998 -20.253914 -537.851440
79.470001 -20.234993 -537.290955
79.900002 -20.214451 -536.941406
80.349998 -20.209099 -536.650757
80.820000 -20.205988 -536.500488
81.290001 -20.192913 -536.351074
81.760002 -20.190674 -536.210693
82.239998 -20.185446 -536.150940
82.739998 -20.193289 -536.240601
83.279999 -20.201256 -536.561096
83.860001 -20.227524 -537.090820
84.379997 -20.234993 -537.290955
84.849998 -20.220177 -537.121582
85.279999 -20.210466 -536.781128
85.730003 -20.197769 -536.521301
86.169998 -20.187187 -536.170837
86.629997 -20.184076 -536.020569
87.110001 -20.177977 -535.950806
87.570000 -20.173992 -535.790588
88.029999 -20.166525 -535.590454
88.459999 -20.153328 -535.210144
88.870003 -20.134905 -534.770081
89.330002 -20.128305 -534.579956
89.800003 -20.126938 -534.449585
90.290001 -20.129553 -534.479431
90.779999 -20.129553 -534.479431
91.290001 -20.127436 -534.570007
91.790001 -20.132664 -534.629761
92.290001 -20.129675 -534.710327
92.820000 -20.138887 -534.930359
93.330002 -20.150217 -535.059875
93.860001 -20.152082 -535.310669
94.400002 -20.164782 -535.570557
94.949997 -20.171875 -535.881104
95.510002 -20.187685 -536.291260
96.110001 -20.208349 -536.871704
96.680000 -20.229389 -537.341614
97.290001 -20.254412 -537.971863
97.930000 -20.281673 -538.742432
98.620003 -20.316900 -539.833496
99.449997 -20.382381 -541.614563
100.309998 -20.453587 -543.575806
101.220001 -20.542225 -545.736328
-50.360001 -23.435703 -608.984802
-49.810001 -23.437447 -609.004761
-49.220001 -23.421263 -608.705017
-48.630001 -23.410185 -608.234192
-48.029999 -23.392136 -607.683655
-47.459999 -23.378189 -607.524292
-46.869999 -23.366737 -607.163879
-46.299999 -23.353168 -606.894043
-45.709999 -23.338228 -606.493835
-45.130001 -23.331135 -606.183289
-44.560001 -23.321051 -605.953247
-43.980000 -23.314829 -605.652649
-43.400002 -23.300386 -605.372864
-42.840000 -23.296404 -605.212585
-42.270000 -23.284576 -604.962708
-41.700001 -23.283209 -604.832275
-41.130001 -23.272253 -604.592346
-40.570000 -23.270885 -604.461975
-40.000000 -23.260801 -604.231995
-39.439999 -23.253828 -604.152283
-38.860001 -23.237146 -603.732117
-38.290001 -23.230053 -603.421570
-37.720001 -23.215611 -603.141785
-37.160000 -23.218599 -603.061218
-36.590000 -23.206774 -602.811279
-36.029999 -23.199800 -602.731567
-35.470001 -23.197063 -602.470825
-34.910000 -23.184862 -602.331360
-34.340000 -23.178265 -602.141235
-33.799999 -23.186110 -602.230896
-33.250000 -23.182247 -602.301453
-32.700001 -23.184862 -602.331360
-32.150002 -23.183119 -602.311462
-31.600000 -23.190964 -602.401062
-31.049999 -23.194448 -602.440918
-30.510000 -23.199305 -602.611145
-29.959999 -23.201920 -602.641052
-29.410000 -23.210258 -602.851135
-28.870001 -23.213371 -603.001404
-28.320000 -23.216482 -603.151733
-27.780001 -23.226940 -603.271240
-27.230000 -23.227438 -603.391663
-26.690001 -23.237522 -603.621704
-26.139999 -23.241879 -603.671509
-25.590000 -23.244493 -603.701355
-25.040001 -23.246359 -603.952148
-24.490000 -23.244616 -603.932251
-23.940001 -23.251589 -604.011963
-23.389999 -23.255075 -604.051758
-22.830000 -23.253332 -604.031860
-22.280001 -23.244616 -603.932251
-21.719999 -23.251963 -603.901489
-21.160000 -23.242750 -603.681458
-20.600000 -23.233164 -603.571899
-20.049999 -23.234409 -603.471375
-19.490000 -23.224823 -603.361816
-18.940001 -23.229555 -603.301147
-18.379999 -23.220840 -603.201538
-17.830000 -23.222958 -603.111023
-17.270000 -23.219473 -603.071167
-16.719999 -23.207270 -602.931702
-16.160000 -23.210258 -602.851135
-15.610000 -23.205404 -602.680908
-15.050000 -23.202789 -602.651001
-14.500000 -23.195818 -602.571289
-13.940000 -23.197935 -602.480774
-13.390000 -23.185734 -602.341309
-12.840000 -23.192209 -602.300598
-12.280000 -23.181751 -602.181030
-11.730000 -23.184740 -602.100464
-11.180000 -23.175154 -601.990906
-10.620000 -23.175154 -601.990906
-10.070000 -23.169924 -601.931152
-9.520000 -23.170795 -601.941101
-8.970000 -23.176399 -601.890442
-8.420000 -23.164198 -601.750977
-7.860000 -23.163700 -601.630554
-7.310000 -23.164574 -601.640503
-6.760000 -23.161085 -601.600647
-6.210000 -23.160215 -601.590698
-5.660000 -23.153618 -601.400513
-5.110000 -23.146645 -601.320862
-4.550000 -23.148266 -601.109924
-4.000000 -23.142164 -601.040161
-3.450000 -23.136065 -600.970459
-2.900000 -23.138680 -601.000305
-2.350000 -23.139925 -600.899841
-1.800000 -23.129467 -600.780273
-1.250000 -23.131584 -600.689758
-0.700000 -23.124115 -600.489624
-0.150000 -23.115774 -600.279602
0.400000 -23.107929 -600.189941
0.950000 -23.096104 -599.940002
1.500000 -23.095110 -599.699158
2.050000 -23.082909 -599.559692
2.600000 -23.073696 -599.339661
3.140000 -23.066227 -599.139526
3.690000 -23.061373 -598.969299
4.240000 -23.060875 -598.848938
4.790000 -23.055149 -598.668701
5.330000 -23.045937 -598.448669
5.880000 -23.043322 -598.418823
6.430000 -23.034983 -598.208740
6.970000 -23.024027 -597.968750
7.520000 -23.023529 -597.848389
8.060000 -23.009584 -597.688965
8.610000 -23.009089 -597.568542
9.150000 -23.002865 -597.267944
9.690000 -22.981451 -596.908447
10.240000 -22.980082 -596.778076
10.780000 -22.979212 -596.768127
11.330000 -22.976597 -596.738220
11.870000 -22.972239 -596.688416
12.420000 -22.979586 -596.657654
12.960000 -22.964769 -596.488281
13.510000 -22.966887 -596.397766
14.050000 -22.964273 -596.367920
14.590000 -22.964647 -596.257446
15.140000 -22.958546 -596.187683
15.680000 -22.957676 -596.177734
16.230000 -22.960291 -596.207642
16.780001 -22.960291 -596.207642
17.320000 -22.954189 -596.137878
17.870001 -22.957676 -596.177734
18.420000 -22.958172 -596.298157
18.959999 -22.959915 -596.318054
19.510000 -22.964273 -596.367920
20.059999 -22.965641 -596.498291
20.610001 -22.970869 -596.558044
21.170000 -22.980953 -596.788025
21.719999 -22.991037 -597.018005
22.280001 -23.000250 -597.238037
22.830000 -23.002115 -597.488831
23.400000 -23.018797 -597.908997
23.959999 -23.031992 -598.289307
24.520000 -23.045187 -598.669617
25.080000 -23.059629 -598.949402
25.650000 -23.067595 -599.269958
26.200001 -23.075439 -599.359558
28.070000 -22.404203 -581.590454
28.570000 -22.383043 -580.889648
29.070000 -22.358021 -580.259460
29.549999 -22.313328 -579.289612
30.040001 -22.290798 -578.458435
30.520000 -22.257435 -577.618164
31.010000 -22.225439 -576.908264
31.500000 -22.206894 -576.237305
32.000000 -22.184111 -575.747437
32.490002 -22.159088 -575.117188
33.000000 -22.146391 -574.857300
33.520000 -22.139793 -574.667175
34.029999 -22.137056 -574.406433
34.540001 -22.123486 -574.136597
35.060001 -22.121246 -573.996216
35.570000 -22.109917 -573.866760
36.090000 -22.112034 -573.776184
36.619999 -22.111162 -573.766235
37.150002 -22.114649 -573.806091
37.680000 -22.113401 -573.906555
38.209999 -22.121246 -573.996216
38.750000 -22.123983 -574.257019
39.310001 -22.144152 -574.716980
39.889999 -22.171413 -575.487549
40.459999 -22.195562 -576.107788
41.029999 -22.217972 -576.708130
41.549999 -22.218346 -576.597656
48.660000 -20.593040 -533.696045
49.110001 -20.581589 -533.335693
49.580002 -20.575863 -533.155518
50.070000 -20.573248 -533.125610
50.560001 -20.575863 -533.155518
51.060001 -20.573744 -533.246033
51.570000 -20.582956 -533.466064
52.080002 -20.594784 -533.716003
52.599998 -20.605364 -534.066406
53.130001 -20.620302 -534.466614
53.669998 -20.641342 -534.936584
54.230000 -20.660761 -535.617493
60.689999 -22.251455 -577.779297
61.209999 -22.259674 -577.758484
61.700001 -22.236519 -577.379089
62.160000 -22.218843 -576.718079
62.650002 -22.202658 -576.418335
63.180000 -22.202658 -576.418335
64.110001 -22.165688 -575.307373
64.610001 -22.154732 -575.067383
65.099998 -22.134190 -574.717834
65.559998 -22.118753 -574.197205
66.029999 -22.096844 -573.717285
71.790001 -21.631634 -561.401001
72.220001 -21.607483 -560.780701
72.639999 -21.581964 -560.030090
73.080002 -21.566528 -559.509460
73.510002 -21.544123 -558.909119
73.959999 -21.521339 -558.419250
74.389999 -21.502419 -557.858765
74.830002 -21.475279 -557.319092
75.250000 -21.458473 -556.668091
75.660004 -21.424736 -555.938232
76.040001 -21.393492 -555.007385
76.410004 -21.356146 -554.006836
76.720001 -21.304731 -552.616028
77.010002 -21.246347 -551.145508
77.239998 -21.175140 -549.184265
77.519997 -21.112398 -547.663940
77.779999 -21.046543 -545.993347
78.019997 -20.981936 -544.222229
78.169998 -20.894049 -541.840820
78.400002 -20.823339 -540.000000
78.709999 -20.779396 -538.809265
79.099998 -20.749144 -538.119324
79.510002 -20.729351 -537.548828
79.959999 -20.724001 -537.258240
80.400002 -20.706944 -536.948547
80.860001 -20.698603 -536.738464
81.330002 -20.694620 -536.578186
81.809998 -20.686775 -536.488525
82.300003 -20.687647 -536.498474
82.800003 -20.693748 -536.568237
83.339996 -20.701714 -536.888733
83.900002 -20.721010 -537.338806
84.419998 -20.725864 -537.509033
84.910004 -20.724121 -537.489075
85.370003 -20.717524 -537.298950
85.790001 -20.709061 -536.857971
86.220001 -20.694122 -536.457764
86.639999 -20.678312 -536.047607
87.110001 -20.662624 -535.868286
87.570000 -20.660385 -535.727905
88.029999 -20.655531 -535.557739
88.489998 -20.647190 -535.347656
88.919998 -20.636608 -534.997253
89.379997 -20.623535 -534.847778
89.860001 -20.625654 -534.757263
90.360001 -20.631756 -534.827026
90.839996 -20.627398 -534.777222
91.339996 -20.624407 -534.857788
91.839996 -20.627022 -534.887634
92.360001 -20.631004 -535.047913
92.870003 -20.640593 -535.157471
93.370003 -20.640217 -535.267944
93.910004 -20.652044 -535.517883
94.440002 -20.663000 -535.757813
95.019997 -20.683168 -536.217834
95.580002 -20.697233 -536.608093
96.160004 -20.710926 -537.108765
96.730003 -20.729351 -537.548828
97.360001 -20.754869 -538.299500
98.000000 -20.783875 -539.089966
98.750000 -20.836161 -540.490723
99.540001 -20.900646 -542.031006
100.360001 -20.963511 -543.782166
101.250000 -21.044304 -545.853027
-50.369999 -23.992327 -609.036499
-49.860001 -24.019466 -609.576172
-49.310001 -24.018221 -609.676697
-48.730000 -24.015484 -609.415894
-48.139999 -23.999674 -609.005737
-47.549999 -23.982616 -608.696045
-46.959999 -23.967182 -608.175415
-46.380001 -23.956226 -607.935425
-45.799999 -23.942657 -607.665588
-45.220001 -23.930332 -607.295288
-44.639999 -23.919378 -607.055298
-44.060001 -23.902697 -606.635193
-43.490002 -23.896971 -606.454956
-42.910000 -23.887758 -606.234924
-42.349998 -23.888132 -606.124512
-41.779999 -23.872820 -605.834717
-41.200001 -23.858377 -605.554932
-40.630001 -23.851780 -605.364746
-40.049999 -23.842445 -604.913879
-39.480000 -23.825886 -604.724609
-38.910000 -23.818792 -604.414063
-38.340000 -23.814810 -604.253784
-37.770000 -23.796881 -603.934143
-37.200001 -23.786797 -603.704102
-36.639999 -23.778456 -603.494019
-36.080002 -23.777960 -603.373657
-35.500000 -23.770864 -603.063049
-34.939999 -23.755177 -602.883728
-34.389999 -23.764267 -602.872925
-33.830002 -23.759039 -602.813171
-33.279999 -23.757296 -602.793213
-32.730000 -23.755552 -602.773315
-32.180000 -23.762524 -602.853027
-31.629999 -23.756048 -602.893738
-31.080000 -23.763021 -602.973389
-30.530001 -23.765636 -603.003296
-29.980000 -23.770864 -603.063049
-29.430000 -23.769619 -603.163574
-28.889999 -23.776217 -603.353699
-28.340000 -23.781446 -603.413452
-27.790001 -23.782814 -603.543884
-27.240000 -23.790659 -603.633545
-26.690001 -23.795015 -603.683350
-26.139999 -23.791155 -603.753906
-25.600000 -23.805099 -603.913330
-25.040001 -23.804228 -603.903381
-24.490000 -23.805099 -603.913330
-23.940001 -23.802982 -604.003845
-23.389999 -23.809954 -604.083557
-22.830000 -23.797752 -603.944092
-22.270000 -23.799000 -603.843567
-21.719999 -23.801613 -603.873474
-21.160000 -23.789412 -603.734009
-20.610001 -23.785429 -603.573730
-20.049999 -23.788418 -603.493164
-19.490000 -23.776217 -603.353699
-18.940001 -23.783564 -603.322937
-18.389999 -23.781820 -603.303040
-17.830000 -23.767876 -603.143616
-17.270000 -23.769121 -603.043152
-16.719999 -23.769121 -603.043152
-16.160000 -23.766010 -602.892822
-15.610000 -23.757296 -602.793213
-15.060000 -23.755552 -602.773315
-14.500000 -23.751570 -602.613037
-13.950000 -23.751944 -602.502563
-13.390000 -23.748457 -602.462708
-12.840000 -23.738871 -602.353149
-12.290000 -23.740116 -602.252686
-11.730000 -23.744474 -602.302490
-11.180000 -23.734016 -602.182922
-10.630000 -23.729658 -602.133118
-10.080000 -23.727915 -602.113220
-9.520000 -23.731775 -602.042603
-8.970000 -23.729160 -602.012695
-8.420000 -23.723932 -601.952942
-7.870000 -23.725178 -601.852417
-7.320000 -23.726921 -601.872375
-6.760000 -23.718206 -601.772766
-6.210000 -23.715591 -601.742859
-5.660000 -23.711233 -601.693054
-5.110000 -23.712481 -601.592590
-4.560000 -23.708122 -601.542725
-4.000000 -23.702396 -601.362549
-3.450000 -23.702770 -601.252136
-2.900000 -23.694927 -601.162476
-2.350000 -23.695301 -601.052002
-1.800000 -23.688330 -600.972290
-1.250000 -23.681730 -600.782166
-0.700000 -23.672144 -600.672607
-0.150000 -23.664675 -600.472473
0.400000 -23.660692 -600.312195
0.950000 -23.654095 -600.122070
1.500000 -23.645754 -599.911987
2.050000 -23.642641 -599.761658
2.600000 -23.632559 -599.531677
3.140000 -23.630320 -599.391357
3.690000 -23.616749 -599.121521
4.240000 -23.612764 -598.961243
4.790000 -23.602306 -598.841675
5.330000 -23.596581 -598.661499
5.880000 -23.593470 -598.511230
6.430000 -23.587744 -598.330994
6.970000 -23.576412 -598.201538
7.520000 -23.573301 -598.051208
8.060000 -23.568447 -597.880981
8.610000 -23.558363 -597.651001
9.150000 -23.546535 -597.401062
9.700000 -23.544670 -597.150269
10.240000 -23.529856 -596.980957
10.790000 -23.533716 -596.910339
11.330000 -23.531973 -596.890381
11.880000 -23.532845 -596.900391
12.420000 -23.526743 -596.830627
12.970000 -23.525375 -596.700256
13.510000 -23.515787 -596.590698
14.060000 -23.521393 -596.539978
14.600000 -23.515291 -596.470276
15.140000 -23.503962 -596.340759
15.690000 -23.507446 -596.380615
16.240000 -23.513050 -596.329895
16.780001 -23.512180 -596.319946
17.330000 -23.510437 -596.300049
17.870001 -23.504831 -596.350708
18.420000 -23.508320 -596.390564
18.969999 -23.518778 -596.510132
19.520000 -23.521889 -596.660400
20.070000 -23.527990 -596.730164
20.620001 -23.521515 -596.770874
21.180000 -23.533340 -597.020752
21.730000 -23.537325 -597.181030
22.280001 -23.543051 -597.361206
22.840000 -23.565336 -597.730713
23.410000 -23.575916 -598.081116
23.969999 -23.583881 -598.401611
24.520000 -23.593094 -598.621643
25.080000 -23.606665 -598.891479
25.639999 -23.608032 -599.021912
26.170000 -23.599195 -598.691406
27.770000 -23.121784 -586.235596
28.219999 -23.048086 -584.475342
28.590000 -22.918121 -581.153992
29.090000 -22.893099 -580.523804
29.570000 -22.862724 -579.602966
30.059999 -22.825500 -578.833252
30.549999 -22.800854 -578.092590
31.049999 -22.779318 -577.502197
31.549999 -22.755663 -577.002380
32.049999 -22.738981 -576.582214
32.549999 -22.727903 -576.111389
33.060001 -22.710352 -575.681274
33.560001 -22.694542 -575.271118
34.070000 -22.689688 -575.100891
