1415
29.900000 -67.878815 -571.970520
30.440001 -67.904465 -572.148926
30.980000 -67.915794 -572.278442
31.510000 -67.921021 -572.338196
32.040001 -67.923637 -572.368103
32.570000 -67.948418 -572.536560
33.119999 -67.989754 -572.894348
33.700001 -68.086746 -573.658813
34.259998 -68.142906 -574.185913
34.820000 -68.207275 -574.692200
35.380001 -68.257332 -575.149597
35.939999 -68.327805 -575.725647
36.509998 -68.393051 -576.241943
37.080002 -68.471367 -576.907654
37.660000 -68.547073 -577.543457
38.240002 -68.637589 -578.348633
38.840000 -68.748535 -579.272461
39.459999 -68.898193 -580.524170
40.099998 -69.082230 -582.053955
40.779999 -69.333244 -584.119934
41.360001 -69.382423 -584.567383
41.910000 -69.413307 -584.805603
42.480000 -69.457260 -585.193237
43.110001 -69.605179 -586.425049
43.689999 -69.671295 -586.951294
44.250000 -69.693954 -587.210266
44.810001 -69.722221 -587.418640
45.389999 -69.783104 -587.885071
45.980000 -69.862297 -588.560730
46.580002 -69.940613 -589.226440
47.180000 -70.024162 -589.951965
47.820000 -70.165985 -591.114014
48.470001 -70.313904 -592.345764
49.130001 -70.468796 -593.657288
49.820000 -70.668510 -595.366394
50.480000 -70.823410 -596.677856
51.060001 -70.875580 -597.044739
51.619999 -70.879936 -597.094543
52.139999 -70.836853 -596.716858
-12.890000 -71.856415 -600.683105
-12.310000 -71.711983 -599.491150
-11.740000 -71.576637 -598.288330
-11.170000 -71.441788 -597.205994
-10.600000 -71.323006 -596.192505
-10.030000 -71.189903 -595.130066
-9.460000 -71.072861 -594.136475
-8.900000 -70.962791 -593.222595
-8.340000 -70.849236 -592.268860
-7.780000 -70.740036 -591.364929
-7.230000 -70.637810 -590.540710
-6.670000 -70.523384 -589.577026
-6.120000 -70.440704 -588.861511
-5.570000 -70.339355 -588.047241
-5.020000 -70.269753 -587.481140
-4.470000 -70.180977 -586.695862
-3.930000 -70.109627 -586.109863
-3.380000 -70.026085 -585.384399
-2.840000 -69.919502 -584.510376
-1.750000 -69.450089 -580.636536
-1.210000 -69.273903 -579.196411
-0.680000 -69.191223 -578.480896
-0.140000 -69.075928 -577.507202
0.390000 -68.977188 -576.722839
0.920000 -68.897125 -576.037231
1.450000 -68.825783 -575.451233
1.980000 -68.756180 -574.885132
2.500000 -68.700020 -574.358032
3.030000 -68.644363 -573.951294
3.560000 -68.597801 -573.533752
4.080000 -68.549484 -573.096313
4.610000 -68.492088 -572.669678
5.130000 -68.455109 -572.361755
5.660000 -68.419868 -572.073730
6.180000 -68.382019 -571.755798
6.710000 -68.362846 -571.536682
7.230000 -68.326736 -571.238647
7.750000 -68.299339 -571.040283
8.270000 -68.270203 -570.822021
8.800000 -68.238457 -570.573853
9.320000 -68.215797 -570.314819
9.840000 -68.197990 -570.226013
10.370000 -68.186661 -570.096558
10.890000 -68.179688 -570.016846
11.410000 -68.164497 -569.957947
11.940000 -68.158394 -569.888184
12.460000 -68.155777 -569.858337
12.990000 -68.154037 -569.838379
13.510000 -68.151421 -569.808533
14.040000 -68.155777 -569.858337
14.560000 -68.157524 -569.878235
15.090000 -68.163620 -569.947998
15.620000 -68.187531 -570.106506
16.150000 -68.193626 -570.176208
16.680000 -68.202347 -570.275818
17.209999 -68.224510 -570.414429
17.740000 -68.251900 -570.612793
18.270000 -68.261490 -570.722412
18.799999 -68.268463 -570.802063
19.320000 -68.269333 -570.812073
19.860001 -68.295853 -571.000427
20.389999 -68.323250 -571.198792
20.920000 -68.342422 -571.417969
21.459999 -68.378532 -571.715942
22.000000 -68.412025 -571.984070
22.530001 -68.415512 -572.023926
23.049999 -68.410278 -571.964172
23.570000 -68.382019 -571.755798
24.090000 -68.359360 -571.496826
24.620001 -68.364586 -571.556580
25.139999 -68.349396 -571.497681
25.660000 -68.338066 -571.368164
26.190001 -68.334579 -571.328308
26.719999 -68.345909 -571.457825
27.250000 -68.361969 -571.526672
27.780001 -68.370689 -571.626343
28.309999 -68.379402 -571.725952
28.850000 -68.398949 -571.834656
29.379999 -68.417252 -572.043823
29.920000 -68.436806 -572.152527
30.450001 -68.446388 -572.262146
30.990000 -68.478142 -572.510315
31.530001 -68.494698 -572.699585
32.070000 -68.516869 -572.838196
32.610001 -68.552971 -573.136169
33.160000 -68.598671 -573.543762
33.720001 -68.666527 -574.089905
34.279999 -68.710480 -574.477539
34.840000 -68.773979 -574.973877
35.400002 -68.825783 -575.451233
35.970001 -68.913193 -576.106079
36.529999 -68.966728 -576.603333
37.110001 -69.042435 -577.239136
37.680000 -69.115524 -577.845032
38.270000 -69.221230 -578.709106
38.849998 -69.318230 -579.473572
39.480000 -69.471375 -580.765137
40.119999 -69.655411 -582.294922
40.799999 -69.890366 -584.292053
41.360001 -69.930832 -584.639832
41.930000 -69.985619 -585.036621
42.500000 -70.028694 -585.414246
43.139999 -70.185333 -586.745667
43.709999 -70.243607 -587.182251
44.259998 -70.255806 -587.321716
44.830002 -70.293655 -587.639648
45.419998 -70.361519 -588.185791
46.000000 -70.430252 -588.741943
46.610001 -70.517281 -589.507263
47.230000 -70.628227 -590.431091
47.869999 -70.773529 -591.632996
48.509998 -70.916222 -592.805054
49.189999 -71.102867 -594.364685
49.889999 -71.321259 -596.172546
50.520000 -71.425232 -597.016724
51.099998 -71.469185 -597.404358
51.630001 -71.433945 -597.116333
52.150002 -71.394348 -596.778503
-13.470000 -72.540916 -601.737427
-12.880000 -72.341194 -600.028320
-12.300000 -72.208961 -598.975830
-11.730000 -72.084946 -597.902588
-11.160000 -71.952713 -596.850098
-10.590000 -71.816994 -595.757751
-10.020000 -71.699081 -594.754211
-9.460000 -71.589890 -593.850281
-8.900000 -71.485916 -593.006165
-8.340000 -71.373238 -592.062378
-7.780000 -71.261421 -591.128601
-7.230000 -71.166168 -590.384033
-6.670000 -71.045639 -589.350647
-6.120000 -70.948647 -588.586182
-5.570000 -70.860741 -587.810852
-5.020000 -70.787651 -587.204956
-4.470000 -70.694145 -586.480347
-3.930000 -70.639732 -585.973145
-3.380000 -70.538376 -585.158875
-2.840000 -70.421333 -584.165283
-2.290000 -70.166832 -582.059448
-1.750000 -69.922783 -580.073181
-1.210000 -69.786194 -578.970886
-0.680000 -69.693932 -578.145813
-0.140000 -69.586479 -577.261780
0.390000 -69.485992 -576.457520
0.920000 -69.391617 -575.722900
1.450000 -69.335457 -575.195801
1.980000 -69.271957 -574.699463
2.500000 -69.225388 -574.281921
3.030000 -69.162758 -573.795532
3.560000 -69.104492 -573.358948
4.080000 -69.055305 -572.911560
4.610000 -69.014839 -572.563721
5.130000 -68.970886 -572.176086
5.660000 -68.942619 -571.967773
6.180000 -68.910873 -571.719604
6.710000 -68.882607 -571.511230
7.230000 -68.845627 -571.203308
7.750000 -68.829063 -571.014038
8.270000 -68.796448 -570.755920
8.800000 -68.773407 -570.607361
9.320000 -68.738174 -570.319336
9.840000 -68.723358 -570.149963
10.370000 -68.717255 -570.080200
10.890000 -68.704681 -570.051208
11.420000 -68.697708 -569.971497
11.940000 -68.693352 -569.921692
12.460000 -68.687248 -569.851990
12.990000 -68.689865 -569.881836
13.510000 -68.683762 -569.812134
14.040000 -68.688988 -569.871887
14.570000 -68.694221 -569.931641
15.100000 -68.719002 -570.100159
15.630000 -68.730331 -570.229675
16.150000 -68.740784 -570.349182
16.680000 -68.755104 -570.398132
17.209999 -68.767311 -570.537598
17.740000 -68.791214 -570.696106
18.270000 -68.801674 -570.815674
18.799999 -68.812134 -570.935181
19.330000 -68.833427 -571.063843
19.870001 -68.848244 -571.233215
20.400000 -68.873016 -571.401672
20.940001 -68.907387 -571.679749
21.480000 -68.951340 -572.067383
22.010000 -68.983963 -572.325500
22.540001 -68.988319 -572.375305
23.070000 -68.976120 -572.235840
23.580000 -68.946106 -572.007629
24.100000 -68.913490 -571.749451
24.620001 -68.905640 -571.659790
25.150000 -68.903900 -571.639893
25.680000 -68.905640 -571.659790
26.209999 -68.908257 -571.689697
26.730000 -68.903030 -571.629944
27.260000 -68.913490 -571.749451
27.790001 -68.919586 -571.819214
28.330000 -68.946983 -572.017578
28.870001 -68.974373 -572.215942
29.400000 -68.984833 -572.335510
29.930000 -68.991806 -572.415161
30.469999 -69.014839 -572.563721
31.010000 -69.048332 -572.831848
31.549999 -69.060539 -572.971313
32.090000 -69.091415 -573.209534
32.639999 -69.130142 -573.537415
33.189999 -69.184921 -573.934143
33.740002 -69.229752 -574.331726
34.299999 -69.281548 -574.809021
34.860001 -69.345047 -575.305420
35.430000 -69.417267 -575.901367
35.990002 -69.473793 -576.318054
36.549999 -69.524719 -576.785339
37.119999 -69.603912 -577.461060
37.700001 -69.690445 -578.105957
38.290001 -69.781837 -578.921082
38.880001 -69.886681 -579.775208
39.509998 -70.056763 -581.145569
40.139999 -70.220367 -582.556702
40.799999 -70.430923 -584.274902
41.380001 -70.494423 -584.771240
41.950001 -70.540123 -585.178833
42.520000 -70.602753 -585.665222
43.150002 -70.750671 -586.896973
43.730000 -70.799850 -587.344421
44.279999 -70.826378 -587.532837
44.849998 -70.866844 -587.880615
45.439999 -70.936447 -588.446716
46.040001 -71.030823 -589.181274
46.639999 -71.115242 -589.916687
47.270000 -71.229668 -590.880432
47.919998 -71.398010 -592.230896
48.560001 -71.520287 -593.284241
49.250000 -71.733452 -595.032288
49.930000 -71.917480 -596.562073
50.610001 -72.099762 -598.071960
51.189999 -72.134132 -598.349976
51.590000 -71.937897 -596.680725
-13.460000 -73.023949 -601.062744
-12.870000 -72.849510 -599.642578
-12.300000 -72.708557 -598.490479
-11.720000 -72.595879 -597.546692
-11.150000 -72.468002 -596.544006
-10.580000 -72.332283 -595.451721
-10.020000 -72.215240 -594.458130
-9.460000 -72.116501 -593.673767
-8.890000 -71.997719 -592.660217
-8.330000 -71.888519 -591.756287
-7.780000 -71.777580 -590.832458
-7.220000 -71.681458 -590.078003
-6.670000 -71.572258 -589.174072
-6.120000 -71.476135 -588.419556
-5.570000 -71.389099 -587.654236
-5.020000 -71.295586 -586.929626
-4.470000 -71.217270 -586.263916
-3.930000 -71.150284 -585.727722
-3.380000 -71.041954 -584.833740
-2.840000 -70.931015 -583.909912
-2.290000 -70.538177 -580.681885
-1.750000 -70.416405 -579.748901
-1.210000 -70.288033 -578.625854
-0.680000 -70.185806 -577.801636
-0.140000 -70.081841 -576.957458
0.390000 -69.986588 -576.212952
0.920000 -69.900421 -575.457581
1.450000 -69.842148 -575.020996
1.970000 -69.776031 -574.494751
2.500000 -69.732956 -574.117065
3.030000 -69.667709 -573.600769
3.560000 -69.617653 -573.143433
4.080000 -69.562866 -572.746643
4.610000 -69.541954 -572.507568
5.130000 -69.487167 -572.110840
5.660000 -69.458900 -571.902527
6.180000 -69.436241 -571.643494
6.700000 -69.407104 -571.425232
7.230000 -69.367508 -571.087402
7.750000 -69.342728 -570.918884
8.270000 -69.311852 -570.680664
8.800000 -69.296165 -570.501343
9.320000 -69.269646 -570.312988
9.840000 -69.260925 -570.213318
10.370000 -69.256569 -570.163513
10.890000 -69.239632 -570.084717
11.420000 -69.227432 -569.945251
11.940000 -69.208755 -569.846497
12.470000 -69.223076 -569.895447
12.990000 -69.206139 -569.816589
13.510000 -69.206139 -569.816589
14.040000 -69.223946 -569.905396
14.570000 -69.232658 -570.005005
15.100000 -69.245735 -570.154419
15.630000 -69.264412 -570.253174
16.160000 -69.276611 -570.392639
16.690001 -69.301392 -570.561157
17.219999 -69.314468 -570.710571
17.750000 -69.337502 -570.859131
18.280001 -69.346214 -570.958740
18.809999 -69.369255 -571.107300
19.340000 -69.378838 -571.216858
19.870001 -69.408844 -571.445129
20.410000 -69.434494 -571.623596
20.950001 -69.473221 -571.951477
21.490000 -69.514557 -572.309204
22.020000 -69.541077 -572.497620
22.549999 -69.546310 -572.557373
23.080000 -69.525887 -572.438721
23.590000 -69.506714 -572.219543
24.110001 -69.472351 -571.941467
24.629999 -69.451927 -571.822815
25.160000 -69.452797 -571.832764
25.690001 -69.450188 -571.802917
26.209999 -69.448441 -571.782959
26.740000 -69.451927 -571.822815
27.280001 -69.474091 -571.961426
27.809999 -69.487167 -572.110840
28.350000 -69.518044 -572.349060
28.879999 -69.524147 -572.418823
29.420000 -69.546310 -572.557373
29.950001 -69.560257 -572.716797
30.490000 -69.584160 -572.875305
31.020000 -69.595490 -573.004822
31.570000 -69.644180 -573.331787
32.110001 -69.668579 -573.610718
32.660000 -69.697716 -573.829041
33.209999 -69.749886 -574.195862
33.759998 -69.799942 -574.653259
34.320000 -69.857346 -575.079895
34.889999 -69.930435 -575.685791
35.439999 -69.971771 -576.043579
36.009998 -70.038757 -576.579773
36.570000 -70.104004 -577.096069
37.139999 -70.163643 -577.663025
37.709999 -70.249306 -578.297974
38.299999 -70.341576 -579.123047
38.900002 -70.461601 -580.036072
39.529999 -70.621727 -581.407349
40.150002 -70.777863 -582.618347
40.810001 -70.979324 -584.347351
41.389999 -71.046310 -584.883545
41.970001 -71.112434 -585.409790
42.549999 -71.181160 -585.965942
43.180000 -71.333443 -587.247559
43.750000 -71.367805 -587.525574
44.320000 -71.420853 -587.902405
44.880001 -71.456085 -588.190430
45.480000 -71.538765 -588.905945
46.070000 -71.610977 -589.501953
46.689999 -71.719307 -590.395874
47.310001 -71.847183 -591.398560
47.980000 -72.029465 -592.908386
48.630001 -72.172157 -594.080444
49.330002 -72.390556 -595.888306
50.070000 -72.669838 -598.162598
50.799999 -72.917366 -600.188721
-13.450000 -73.525291 -600.597290
-12.870000 -73.386086 -599.465149
-12.290000 -73.246010 -598.322998
-11.720000 -73.119873 -597.340271
-11.150000 -72.984154 -596.247925
-10.580000 -72.869728 -595.284241
-10.020000 -72.757050 -594.340454
-9.460000 -72.661797 -593.595947
-8.890000 -72.526077 -592.503601
-8.330000 -72.427338 -591.719238
-7.780000 -72.305061 -590.665833
-7.220000 -72.209808 -589.921326
-6.670000 -72.104973 -589.067200
-6.110000 -71.993156 -588.133423
-5.560000 -71.898781 -587.398865
-5.020000 -71.830917 -586.852661
-4.470000 -71.745628 -586.107300
-3.930000 -71.663452 -585.512146
-3.380000 -71.548149 -584.538513
-2.840000 -71.398483 -583.286804
-2.290000 -71.031799 -580.357605
-1.750000 -70.922600 -579.453674
-1.210000 -70.792976 -578.431091
-0.680000 -70.686394 -577.557068
-0.140000 -70.597618 -576.771790
0.390000 -70.508469 -576.096985
0.920000 -70.425789 -575.381470
1.450000 -70.365776 -574.924988
1.970000 -70.297920 -574.378845
2.500000 -70.253967 -573.991150
3.030000 -70.192207 -573.514771
3.560000 -70.146507 -573.107178
4.080000 -70.090851 -572.700500
4.610000 -70.054741 -572.402466
5.130000 -70.024734 -572.174255
5.660000 -69.992989 -571.926086
6.180000 -69.956001 -571.618103
6.700000 -69.935089 -571.379028
7.230000 -69.904205 -571.140808
7.750000 -69.879433 -570.972351
8.270000 -69.839836 -570.634521
8.800000 -69.815926 -570.475952
9.320000 -69.806343 -570.366394
9.850000 -69.796753 -570.256836
10.370000 -69.778076 -570.158081
10.900000 -69.795883 -570.246826
11.420000 -69.767616 -570.038513
11.940000 -69.749809 -569.949707
12.460000 -69.736740 -569.800293
12.990000 -69.738480 -569.820251
13.520000 -69.744583 -569.889954
14.050000 -69.765877 -570.018616
14.570000 -69.777206 -570.148132
15.100000 -69.783302 -570.217834
15.630000 -69.806343 -570.366394
16.160000 -69.818542 -570.505859
16.690001 -69.843323 -570.674316
17.219999 -69.870712 -570.872681
17.750000 -69.882042 -571.002197
18.290001 -69.910309 -571.210571
18.820000 -69.918152 -571.300171
19.350000 -69.937698 -571.408936
19.879999 -69.956879 -571.628052
20.420000 -69.986015 -571.846375
20.959999 -70.038185 -572.213196
21.500000 -70.060844 -572.472229
22.040001 -70.113014 -572.839050
22.570000 -70.117371 -572.888855
23.090000 -70.094337 -572.740356
23.610001 -70.057358 -572.432373
24.120001 -70.039055 -572.223206
24.650000 -70.023865 -572.164246
25.180000 -70.022118 -572.144348
25.700001 -70.019508 -572.114441
26.230000 -70.017761 -572.094543
26.760000 -70.026482 -572.194153
27.290001 -70.045158 -572.292908
27.830000 -70.055618 -572.412476
28.360001 -70.077782 -572.551025
28.889999 -70.082138 -572.600830
29.430000 -70.093468 -572.730347
29.969999 -70.140411 -573.037415
30.510000 -70.155228 -573.206787
31.049999 -70.181747 -573.395203
31.590000 -70.214371 -573.653320
32.130001 -70.232674 -573.862549
32.680000 -70.286591 -574.249329
33.230000 -70.325310 -574.577209
33.790001 -70.384453 -575.023743
34.349998 -70.432762 -575.461182
34.910000 -70.500626 -576.007324
35.470001 -70.545448 -576.404968
36.020000 -70.601105 -576.811646
36.590000 -70.671577 -577.387695
37.160000 -70.742928 -577.973694
37.740002 -70.835564 -578.688354
38.320000 -70.911270 -579.324158
38.919998 -71.025696 -580.287903
39.540001 -71.187065 -581.558655
40.169998 -71.342827 -582.880127
40.820000 -71.533333 -584.369141
41.400002 -71.610779 -585.024902
41.980000 -71.682129 -585.610901
42.580002 -71.762192 -586.296570
43.200001 -71.902267 -587.438660
43.770000 -71.950951 -587.765686
44.330002 -71.987930 -588.073608
44.919998 -72.054047 -588.599854
45.509998 -72.129753 -589.235718
46.110001 -72.208069 -589.901428
46.730000 -72.330711 -590.844299
47.369999 -72.476021 -592.046204
48.020000 -72.624809 -593.287964
48.709999 -72.835365 -595.006165
49.430000 -73.095474 -597.061279
50.160000 -73.349976 -599.167114
-14.030000 -74.212402 -601.681519
-13.430000 -73.994881 -599.883667
-12.860000 -73.893524 -599.069397
-12.290000 -73.755188 -597.947205
-11.720000 -73.651222 -597.103027
-11.140000 -73.492470 -595.862122
-10.580000 -73.396347 -595.107666
-10.010000 -73.281921 -594.143982
-9.450000 -73.184052 -593.369568
-8.890000 -73.043098 -592.217468
-8.330000 -72.953949 -591.542664
-7.770000 -72.829933 -590.469360
-7.220000 -72.727715 -589.645142
-6.660000 -72.626358 -588.830872
-6.110000 -72.530235 -588.076355
-5.560000 -72.428009 -587.252136
-5.020000 -72.350563 -586.596436
-4.470000 -72.267509 -585.991333
-3.920000 -72.182220 -585.245972
-3.380000 -72.046501 -584.153625
-2.830000 -71.738083 -581.661011
-2.280000 -71.514084 -579.903870
-1.750000 -71.409241 -579.049744
-1.210000 -71.305275 -578.205566
-0.680000 -71.195206 -577.291687
-0.140000 -71.101692 -576.567078
0.390000 -71.018150 -575.841614
0.920000 -70.948547 -575.275513
1.450000 -70.885040 -574.779175
1.970000 -70.818054 -574.242981
2.500000 -70.765015 -573.866150
3.030000 -70.699768 -573.349854
3.550000 -70.654076 -572.942322
4.080000 -70.614479 -572.604492
4.610000 -70.587082 -572.406128
5.130000 -70.547493 -572.068298
5.660000 -70.513992 -571.800171
6.180000 -70.484863 -571.581909
6.710000 -70.455727 -571.363586
7.230000 -70.420486 -571.075562
7.750000 -70.387863 -570.817444
8.280000 -70.373917 -570.658020
8.800000 -70.349136 -570.489563
9.320000 -70.334328 -570.320190
9.850000 -70.316521 -570.231384
10.370000 -70.301704 -570.062073
10.890000 -70.287384 -570.013123
11.420000 -70.287384 -570.013123
11.940000 -70.282150 -569.953369
12.470000 -70.276924 -569.893555
12.990000 -70.285637 -569.993225
13.520000 -70.301704 -570.062073
14.050000 -70.308678 -570.141785
14.580000 -70.320007 -570.271240
15.110000 -70.343040 -570.419800
15.640000 -70.347397 -570.469604
16.170000 -70.373917 -570.658020
16.700001 -70.383507 -570.767639
17.230000 -70.408287 -570.936096
17.760000 -70.435677 -571.134460
18.290001 -70.455727 -571.363586
18.830000 -70.480499 -571.532043
19.360001 -70.503540 -571.680603
19.889999 -70.524452 -571.919739
20.430000 -70.550102 -572.098145
20.969999 -70.586212 -572.396118
21.510000 -70.629295 -572.773804
22.049999 -70.657562 -572.982178
22.580000 -70.681465 -573.140686
23.100000 -70.657562 -572.982178
23.620001 -70.628426 -572.763855
24.139999 -70.610123 -572.554688
24.660000 -70.587082 -572.406128
25.190001 -70.585342 -572.386169
25.719999 -70.581856 -572.346313
26.250000 -70.586212 -572.396118
26.780001 -70.590569 -572.445984
27.309999 -70.608376 -572.534729
27.840000 -70.614479 -572.604492
28.370001 -70.612732 -572.584534
28.900000 -70.627548 -572.753906
29.440001 -70.657562 -572.982178
29.990000 -70.691055 -573.250244
30.520000 -70.717575 -573.438660
31.059999 -70.746712 -573.656982
31.610001 -70.781075 -573.934998
32.150002 -70.808472 -574.133362
32.700001 -70.848938 -574.481201
33.250000 -70.895500 -574.898743
33.810001 -70.958130 -575.385132
34.369999 -71.018150 -575.841614
34.930000 -71.062973 -576.239197
35.480000 -71.115143 -576.606079
36.040001 -71.166069 -577.073425
36.610001 -71.235672 -577.639465
37.180000 -71.306145 -578.215515
37.759998 -71.390938 -578.840515
38.330002 -71.467514 -579.486328
38.939999 -71.593651 -580.469055
39.570000 -71.768089 -581.889282
40.189999 -71.915138 -583.111084
40.840000 -72.108261 -584.630066
41.419998 -72.183960 -585.265869
42.000000 -72.251823 -585.812012
42.599998 -72.346207 -586.546570
43.230000 -72.489769 -587.728577
43.790001 -72.522392 -587.986694
44.369999 -72.582405 -588.443237
44.959999 -72.658981 -589.088989
45.549999 -72.730324 -589.675049
46.139999 -72.806030 -590.310852
46.770000 -72.940880 -591.393188
47.419998 -73.099632 -592.634094
48.090000 -73.278435 -594.104126
48.799999 -73.524223 -596.110352
49.529999 -73.785202 -598.175415
-14.020000 -74.718102 -601.265869
-13.430000 -74.544533 -599.855652
-12.860000 -74.416656 -598.852966
-12.280000 -74.281807 -597.770630
-11.710000 -74.163025 -596.757080
-11.140000 -74.036888 -595.774353
-10.580000 -73.938148 -594.989990
-10.010000 -73.831566 -594.115967
-9.450000 -73.730217 -593.301697
-8.890000 -73.573204 -592.080750
-8.330000 -73.495758 -591.424988
-7.770000 -73.366135 -590.402405
-7.220000 -73.261299 -589.548279
-6.660000 -73.160812 -588.743958
-6.110000 -73.061203 -587.949646
-5.560000 -72.966827 -587.215027
-5.020000 -72.898964 -586.668884
-4.470000 -72.800224 -585.884521
-3.920000 -72.697128 -585.050293
-3.380000 -72.536629 -583.789490
-2.820000 -72.164711 -580.800537
-2.280000 -72.024635 -579.658386
-1.750000 -71.899376 -578.685608
-1.210000 -71.796280 -577.851440
-0.680000 -71.710983 -577.106018
-0.140000 -71.611374 -576.311707
0.390000 -71.528328 -575.706604
0.920000 -71.463951 -575.200317
1.450000 -71.412155 -574.723022
1.970000 -71.326492 -574.088074
2.500000 -71.290382 -573.790100
3.030000 -71.241203 -573.342651
3.550000 -71.185539 -572.935974
4.080000 -71.149429 -572.638000
4.610000 -71.115067 -572.359924
5.130000 -71.062027 -571.983093
5.660000 -71.049820 -571.843628
6.180000 -71.015457 -571.565552
6.710000 -70.984581 -571.327332
7.230000 -70.957184 -571.128967
7.750000 -70.927177 -570.900757
8.280000 -70.909744 -570.701477
8.800000 -70.886711 -570.552917
9.320000 -70.877121 -570.443359
9.850000 -70.872765 -570.393555
10.370000 -70.844498 -570.185242
10.900000 -70.824951 -570.076538
11.420000 -70.822334 -570.046631
11.950000 -70.818848 -570.006775
12.470000 -70.822334 -570.046631
13.000000 -70.842758 -570.165283
13.530000 -70.845375 -570.195190
14.060000 -70.859322 -570.354553
14.580000 -70.877998 -570.453308
15.110000 -70.884972 -570.533020
15.640000 -70.908005 -570.681580
16.170000 -70.920204 -570.821045
16.700001 -70.927177 -570.900757
17.230000 -70.955444 -571.109070
17.770000 -71.004997 -571.446045
18.299999 -71.014587 -571.555603
18.840000 -71.041977 -571.753967
19.370001 -71.071983 -571.982239
19.900000 -71.084190 -572.121704
20.440001 -71.112450 -572.330017
20.980000 -71.156403 -572.717651
21.520000 -71.193382 -573.025635
22.059999 -71.219910 -573.214050
22.590000 -71.228622 -573.313660
23.110001 -71.222519 -573.243896
23.639999 -71.216423 -573.174194
24.160000 -71.190773 -572.995728
24.680000 -71.173340 -572.796509
25.209999 -71.159889 -572.757507
25.740000 -71.174210 -572.806458
26.260000 -71.152046 -572.667847
26.790001 -71.159889 -572.757507
27.320000 -71.173340 -572.796509
27.850000 -71.176826 -572.836365
28.379999 -71.183800 -572.916016
28.930000 -71.219032 -573.204041
29.469999 -71.245560 -573.392456
30.000000 -71.261246 -573.571777
30.549999 -71.293869 -573.829956
31.090000 -71.320389 -574.018311
31.639999 -71.359116 -574.346191
32.180000 -71.387375 -574.554504
32.730000 -71.439552 -574.921387
33.279999 -71.479141 -575.259216
33.830002 -71.524841 -575.666809
34.389999 -71.582237 -576.093384
34.950001 -71.639641 -576.520020
35.509998 -71.691437 -576.997314
36.070000 -71.749710 -577.433899
36.630001 -71.810600 -577.900391
37.209999 -71.888046 -578.556152
37.770000 -71.930252 -578.923828
38.349998 -72.021149 -579.618591
38.959999 -72.160355 -580.750732
39.599998 -72.349113 -582.219910
40.230000 -72.518333 -583.580322
40.849998 -72.667122 -584.822083
41.450001 -72.759758 -585.536743
42.029999 -72.848915 -586.211487
42.630001 -72.931587 -586.927002
43.250000 -73.061203 -587.949646
43.820000 -73.116867 -588.356323
44.400002 -73.180367 -588.852661
44.990002 -73.252586 -589.448669
45.580002 -73.326546 -590.064514
46.180000 -73.415695 -590.739319
46.830002 -73.567970 -592.020935
47.470001 -73.724113 -593.231934
48.189999 -73.969902 -595.238159
48.869999 -74.169991 -596.836792
-14.010000 -75.235504 -600.869263
-13.430000 -75.076752 -599.628418
-12.860000 -74.948875 -598.625732
-12.280000 -74.815765 -597.563293
-11.710000 -74.685280 -596.530701
-11.140000 -74.563507 -595.597778
-10.570000 -74.456924 -594.723755
-10.010000 -74.355568 -593.909485
-9.450000 -74.254211 -593.095215
-8.890000 -74.119370 -592.012878
-8.330000 -74.024117 -591.268311
-7.770000 -73.896240 -590.265686
-7.220000 -73.788788 -589.381653
-6.660000 -73.687431 -588.567383
-6.110000 -73.589561 -587.792969
-5.560000 -73.495186 -587.058411
-5.020000 -73.422966 -586.462463
-4.470000 -73.333817 -585.787659
-3.920000 -73.202454 -584.745117
-3.370000 -73.034111 -583.394653
-2.820000 -72.647873 -580.356750
-2.280000 -72.518250 -579.334167
-1.740000 -72.408180 -578.420288
-1.210000 -72.282051 -577.437500
-0.680000 -72.208092 -576.821655
-0.140000 -72.115456 -576.106995
0.390000 -72.047592 -575.560791
0.920000 -71.978867 -575.004700
1.450000 -71.922333 -574.588013
1.970000 -71.872276 -574.130676
2.500000 -71.816620 -573.723938
3.030000 -71.758347 -573.287354
3.550000 -71.713524 -572.889771
4.080000 -71.678291 -572.601746
4.610000 -71.641312 -572.293823
5.130000 -71.592621 -571.966797
5.660000 -71.576065 -571.777527
6.180000 -71.529991 -571.480408
6.710000 -71.509949 -571.251282
7.230000 -71.480812 -571.033020
7.750000 -71.456032 -570.864502
8.280000 -71.442963 -570.715088
8.800000 -71.419052 -570.556580
9.330000 -71.415565 -570.516724
9.850000 -71.396019 -570.408020
10.380000 -71.389046 -570.328308
10.900000 -71.379456 -570.218750
11.420000 -71.360779 -570.119995
11.950000 -71.362518 -570.139893
12.480000 -71.378586 -570.208740
13.000000 -71.381203 -570.238647
13.530000 -71.383812 -570.268555
14.060000 -71.396889 -570.417969
14.590000 -71.416435 -570.526672
15.120000 -71.426025 -570.636230
15.650000 -71.452545 -570.824646
16.180000 -71.460388 -570.914307
16.709999 -71.491272 -571.152527
17.240000 -71.518661 -571.350891
17.780001 -71.545181 -571.539307
18.309999 -71.572578 -571.737671
18.840000 -71.590012 -571.936890
19.379999 -71.616531 -572.125305
19.910000 -71.649155 -572.383484
20.450001 -71.681770 -572.641602
20.990000 -71.726601 -573.039185
21.530001 -71.754860 -573.247559
22.070000 -71.777901 -573.396118
22.600000 -71.785744 -573.485718
23.129999 -71.784874 -573.475769
23.650000 -71.778770 -573.406067
24.170000 -71.753120 -573.227600
24.700001 -71.740044 -573.078186
25.219999 -71.723984 -573.009338
25.750000 -71.723984 -573.009338
26.280001 -71.736565 -573.038330
26.809999 -71.739174 -573.068237
27.340000 -71.745277 -573.137939
27.870001 -71.747894 -573.167847
28.410000 -71.773544 -573.346252
28.950001 -71.805290 -573.594482
29.490000 -71.817497 -573.733948
30.020000 -71.842270 -573.902405
30.570000 -71.870537 -574.110718
31.110001 -71.889709 -574.329895
31.650000 -71.934036 -574.607117
32.200001 -71.972763 -574.934937
32.750000 -72.007126 -575.213013
33.299999 -72.051079 -575.600647
33.860001 -72.107613 -576.017334
34.410000 -72.153305 -576.424866
34.970001 -72.208092 -576.821655
35.529999 -72.265495 -577.248230
36.090000 -72.328995 -577.744629
36.660000 -72.381660 -578.231873
37.220001 -72.444290 -578.718262
37.779999 -72.481270 -579.026184
38.360001 -72.573036 -579.730896
38.990002 -72.759186 -581.170166
39.619999 -72.929268 -582.540527
40.250000 -73.096741 -583.881042
40.880001 -73.261597 -585.191650
41.470001 -73.337303 -585.827454
42.060001 -73.422096 -586.452454
42.660000 -73.522575 -587.256775
43.270000 -73.646965 -588.219604
43.840000 -73.688301 -588.577332
44.430000 -73.761391 -589.183289
45.020000 -73.842697 -589.768433
45.619999 -73.926247 -590.493896
46.240002 -74.045410 -591.396973
46.880001 -74.190712 -592.598877
47.560001 -74.409485 -594.296265
48.250000 -74.620033 -596.014465
-14.600000 -75.976532 -602.340271
-14.010000 -75.752533 -600.583130
-13.430000 -75.622040 -599.550598
-12.850000 -75.490677 -598.508057
-12.280000 -75.335411 -597.307007
-11.710000 -75.208405 -596.314331
-11.140000 -75.103569 -595.460205
-10.580000 -75.008316 -594.715637
-10.010000 -74.879570 -593.703064
-9.450000 -74.775597 -592.858887
-8.890000 -74.647728 -591.856201
-8.330000 -74.551598 -591.101746
-7.770000 -74.445892 -590.237671
-7.220000 -74.326729 -589.334595
-6.660000 -74.222763 -588.490417
-6.110000 -74.135353 -587.835571
-5.560000 -74.031387 -586.991394
-5.020000 -73.945717 -586.356445
-4.470000 -73.840881 -585.502380
-3.920000 -73.705162 -584.410034
-2.820000 -73.134514 -579.952820
-2.280000 -73.028809 -579.088745
-1.740000 -72.919609 -578.184814
-1.210000 -72.804810 -577.331543
-0.680000 -72.709557 -576.587036
-0.140000 -72.639954 -576.020935
0.390000 -72.572960 -575.484741
0.920000 -72.503357 -574.918640
1.450000 -72.448570 -574.521912
1.970000 -72.400261 -574.084473
2.500000 -72.348091 -573.717590
3.030000 -72.305008 -573.339905
3.560000 -72.271515 -573.071838
4.080000 -72.209755 -572.595398
4.610000 -72.177132 -572.337280
5.130000 -72.129318 -572.020203
5.660000 -72.096703 -571.762085
6.180000 -72.061462 -571.474060
6.700000 -72.026222 -571.186035
7.230000 -72.011406 -571.016663
7.750000 -71.990990 -570.898010
8.280000 -71.966209 -570.729553
8.800000 -71.960983 -570.669739
9.330000 -71.955750 -570.609985
9.850000 -71.947906 -570.520325
10.380000 -71.924873 -570.371765
10.900000 -71.924004 -570.361816
11.430000 -71.916153 -570.272156
11.950000 -71.917900 -570.292053
12.480000 -71.918770 -570.302063
13.010000 -71.921387 -570.331909
13.530000 -71.928360 -570.411621
14.060000 -71.949654 -570.540283
14.590000 -71.961853 -570.679749
15.120000 -71.989243 -570.878113
15.650000 -72.011406 -571.016663
16.190001 -72.030586 -571.235840
16.719999 -72.051003 -571.354492
17.250000 -72.077522 -571.542908
17.790001 -72.110146 -571.801086
18.320000 -72.128448 -572.010254
18.850000 -72.153229 -572.178772
19.389999 -72.187592 -572.456787
19.930000 -72.222832 -572.744812
20.459999 -72.242378 -572.853516
21.000000 -72.275002 -573.111694
21.540001 -72.306755 -573.359863
22.070000 -72.333275 -573.548279
22.600000 -72.337631 -573.598083
23.139999 -72.346352 -573.697693
23.660000 -72.336761 -573.588135
24.180000 -72.314598 -573.449524
24.709999 -72.311981 -573.419617
25.240000 -72.305885 -573.349915
25.770000 -72.302399 -573.310059
26.290001 -72.288078 -573.261108
26.830000 -72.310242 -573.399719
27.360001 -72.313728 -573.439575
27.889999 -72.335892 -573.578125
28.430000 -72.353317 -573.777405
28.969999 -72.374611 -573.906006
29.500000 -72.385941 -574.035522
30.040001 -72.409851 -574.194031
30.580000 -72.438118 -574.402405
31.129999 -72.477707 -574.740234
31.680000 -72.508591 -574.978455
32.220001 -72.536858 -575.186768
32.770000 -72.593384 -575.603394
33.320000 -72.629494 -575.901428
33.880001 -72.688637 -576.347961
34.439999 -72.736946 -576.785400
35.000000 -72.796089 -577.231934
35.549999 -72.837425 -577.589722
36.110001 -72.896568 -578.036255
36.669998 -72.947868 -578.393127
37.230000 -72.996185 -578.830566
37.799999 -73.055328 -579.277161
38.380001 -73.144478 -579.951904
39.020000 -73.346313 -581.570496
39.669998 -73.544662 -583.149231
40.279999 -73.676895 -584.201721
40.900002 -73.830421 -585.382813
41.500000 -73.929161 -586.167175
42.080002 -74.000504 -586.753174
42.680000 -74.100990 -587.557495
43.290001 -74.219276 -588.450623
43.869999 -74.285393 -588.976807
44.470001 -74.375412 -589.661621
45.070000 -74.453735 -590.327332
45.669998 -74.554214 -591.131592
46.290001 -74.675987 -592.064514
46.950001 -74.861267 -593.493835
47.650002 -75.088753 -595.290833
48.279999 -75.216629 -596.293518
-14.600000 -76.483101 -601.934631
-14.000000 -76.277779 -600.276184
-13.420000 -76.151642 -599.293457
-12.850000 -76.031616 -598.380432
-12.270000 -75.872856 -597.139526
-11.700000 -75.742371 -596.106995
-11.140000 -75.625824 -595.233826
-10.570000 -75.527954 -594.459412
-10.010000 -75.403572 -593.496582
-9.450000 -75.300468 -592.662415
-8.880000 -75.176086 -591.699585
-8.330000 -75.086060 -591.014832
-7.770000 -74.955566 -589.982239
-7.220000 -74.861191 -589.247681
-6.660000 -74.757217 -588.403503
-6.110000 -74.658485 -587.619141
-5.560000 -74.558868 -586.824829
-5.010000 -74.461006 -586.050415
-4.460000 -74.337486 -585.097534
-3.920000 -74.189194 -583.976196
-3.360000 -73.771202 -580.690125
-2.820000 -73.632866 -579.567932
-2.280000 -73.511093 -578.634949
-1.740000 -73.414970 -577.880493
-1.210000 -73.297554 -576.997375
-0.680000 -73.226204 -576.411316
-0.140000 -73.160088 -575.885071
0.390000 -73.088745 -575.299072
0.920000 -73.014404 -574.793640
1.450000 -72.971329 -574.415955
1.970000 -72.936958 -574.137878
2.500000 -72.899109 -573.820007
3.030000 -72.840836 -573.383423
3.560000 -72.804726 -573.085388
4.080000 -72.753426 -572.728516
4.610000 -72.710350 -572.350830
5.130000 -72.651207 -571.904297
5.660000 -72.622940 -571.695984
6.180000 -72.592056 -571.457764
6.710000 -72.566406 -571.279297
7.230000 -72.535530 -571.041077
7.760000 -72.528557 -570.961426
8.280000 -72.514610 -570.802002
8.810000 -72.496803 -570.713196
9.330000 -72.491577 -570.653442
9.860000 -72.488091 -570.613586
10.380000 -72.466797 -570.484985
10.910000 -72.462440 -570.435181
11.430000 -72.461571 -570.425171
11.960000 -72.462440 -570.435181
12.480000 -72.465927 -570.475037
13.010000 -72.485474 -570.583740
13.540000 -72.482864 -570.553833
14.070000 -72.488091 -570.613586
14.600000 -72.524200 -570.911560
15.130000 -72.547234 -571.060120
15.660000 -72.561180 -571.219543
16.200001 -72.592056 -571.457764
16.730000 -72.618584 -571.646179
17.260000 -72.629913 -571.775635
17.790001 -72.662537 -572.033813
18.330000 -72.686440 -572.192322
18.870001 -72.721680 -572.480347
19.400000 -72.743843 -572.618958
19.930000 -72.772980 -572.837219
20.469999 -72.800369 -573.035583
21.010000 -72.832993 -573.293762
21.549999 -72.864746 -573.541931
22.080000 -72.876076 -573.671448
22.610001 -72.882172 -573.741150
23.150000 -72.902596 -573.859802
23.680000 -72.903465 -573.869812
24.200001 -72.895622 -573.780151
24.730000 -72.879562 -573.711243
25.250000 -72.870842 -573.611633
25.780001 -72.866486 -573.561829
26.309999 -72.869102 -573.591736
26.840000 -72.877815 -573.691345
27.379999 -72.884789 -573.771057
27.910000 -72.894753 -573.770142
28.450001 -72.930862 -574.068176
28.990000 -72.943932 -574.217590
29.520000 -72.966095 -574.356201
30.059999 -72.994362 -574.564514
30.610001 -73.027855 -574.832642
31.150000 -73.058739 -575.070801
31.700001 -73.094849 -575.368835
32.240002 -73.124855 -575.597046
32.799999 -73.166191 -575.954834
33.340000 -73.197067 -576.193054
33.900002 -73.256210 -576.639587
34.450001 -73.309258 -577.016418
35.020000 -73.361053 -577.493713
35.570000 -73.414970 -577.880493
36.130001 -73.468880 -578.267273
36.689999 -73.512833 -578.654907
37.250000 -73.571106 -579.091492
37.810001 -73.615929 -579.489075
38.410000 -73.738579 -580.432007
39.060001 -73.959961 -582.159241
39.689999 -74.123077 -583.449951
40.310001 -74.278343 -584.651001
40.930000 -74.424896 -585.752380
41.509998 -74.493629 -586.308533
42.110001 -74.597595 -587.152710
42.709999 -74.694588 -587.917114
43.320000 -74.805908 -588.730530
43.900002 -74.876381 -589.306580
44.500000 -74.969887 -590.031189
45.099998 -75.064270 -590.765747
45.730000 -75.191277 -591.758484
46.340000 -75.299599 -592.652405
47.020000 -75.511398 -594.270142
47.680000 -75.680611 -595.630554
-14.590000 -76.980949 -601.429260
-14.000000 -76.818710 -600.148560
-13.420000 -76.680878 -599.146729
-12.850000 -76.567322 -598.192993
-12.270000 -76.409439 -596.962097
-11.700000 -76.273338 -595.980225
-11.130000 -76.170242 -595.146057
-10.570000 -76.051956 -594.252930
-10.000000 -75.939278 -593.309204
-9.440000 -75.823601 -592.445984
-8.880000 -75.707924 -591.582764
-8.330000 -75.628738 -590.907104
-7.770000 -75.503479 -589.934326
-7.220000 -75.409096 -589.199768
-6.660000 -75.291679 -588.316650
-6.110000 -75.185966 -587.452515
-5.560000 -75.075523 -586.649109
-5.010000 -74.967201 -585.755127
-4.460000 -74.816292 -584.603943
-3.360000 -74.248260 -580.176575
-2.820000 -74.129097 -579.273560
-2.280000 -74.007324 -578.340576
-1.740000 -73.912071 -577.596069
-1.210000 -73.815079 -576.831604
-0.680000 -73.747215 -576.285461
-0.140000 -73.678482 -575.729309
0.390000 -73.602409 -575.203979
0.920000 -73.538033 -574.697632
1.450000 -73.501053 -574.389709
1.970000 -73.471916 -574.171387
2.500000 -73.430580 -573.813660
3.030000 -73.395340 -573.525635
3.560000 -73.344040 -573.168701
4.080000 -73.301834 -572.801025
4.610000 -73.244431 -572.374390
5.130000 -73.187035 -571.947754
5.660000 -73.154411 -571.689636
6.180000 -73.124397 -571.461365
6.710000 -73.099625 -571.292908
7.230000 -73.082191 -571.093628
7.760000 -73.060898 -570.965027
8.280000 -73.049568 -570.835510
8.810000 -73.034378 -570.776611
9.330000 -73.026535 -570.686951
9.860000 -73.024788 -570.667053
10.380000 -73.006981 -570.578247
10.910000 -73.022179 -570.637146
11.440000 -73.023048 -570.647095
11.960000 -73.018692 -570.597290
12.490000 -73.021301 -570.627197
13.020000 -73.033508 -570.766663
13.540000 -73.034378 -570.776611
14.080000 -73.059158 -570.945068
14.610000 -73.081322 -571.083679
15.140000 -73.115685 -571.361755
15.670000 -73.131371 -571.541077
16.200001 -73.156151 -571.709534
16.740000 -73.177444 -571.838196
17.270000 -73.187904 -571.957703
17.799999 -73.217911 -572.185974
18.340000 -73.247047 -572.404297
18.870001 -73.268341 -572.532898
19.400000 -73.289253 -572.771973
19.940001 -73.332710 -573.039246
20.480000 -73.351013 -573.248413
21.010000 -73.374924 -573.406921
21.549999 -73.402313 -573.605286
22.090000 -73.434937 -573.863464
22.620001 -73.458847 -574.021973
23.160000 -73.462334 -574.061829
23.680000 -73.460587 -574.041870
24.219999 -73.470177 -574.151489
24.740000 -73.461456 -574.051880
25.270000 -73.444527 -573.973022
25.799999 -73.434937 -573.863464
26.330000 -73.456230 -573.992065
26.860001 -73.457100 -574.002014
27.400000 -73.469299 -574.141479
27.930000 -73.489723 -574.260193
28.469999 -73.518860 -574.478455
29.010000 -73.525833 -574.558167
29.540001 -73.535416 -574.667725
30.090000 -73.565430 -574.895996
30.629999 -73.597176 -575.144165
31.170000 -73.628059 -575.382385
31.719999 -73.660683 -575.640564
32.270000 -73.709366 -575.967529
32.820000 -73.749832 -576.315308
33.369999 -73.783325 -576.583435
33.919998 -73.840729 -577.010071
34.480000 -73.900742 -577.466553
35.040001 -73.943825 -577.844238
35.590000 -73.989891 -578.141357
36.150002 -74.032104 -578.509094
36.709999 -74.086891 -578.905823
37.259998 -74.126488 -579.243652
37.830002 -74.186501 -579.700134
38.470001 -74.400040 -581.337769
39.099998 -74.560539 -582.598572
39.730000 -74.746681 -584.037842
40.349998 -74.876305 -585.060425
40.959999 -75.005051 -586.073059
41.549999 -75.098557 -586.797668
42.139999 -75.186836 -587.462524
42.740002 -75.288193 -588.276794
43.340000 -75.385185 -589.041199
43.939999 -75.479568 -589.775818
44.549999 -75.588272 -590.559326
45.150002 -75.681778 -591.283936
45.779999 -75.819244 -592.396179
46.380001 -75.910141 -593.090881
47.090000 -76.158913 -595.016541
47.740002 -76.324638 -596.337097
-15.160000 -77.654121 -602.354126
-14.580000 -77.491882 -601.073425
-14.000000 -77.358772 -600.010986
-13.420000 -77.208733 -598.869690
-12.840000 -77.085220 -597.916809
-12.270000 -76.926460 -596.675964
-11.700000 -76.810791 -595.812744
-11.130000 -76.677689 -594.750305
-10.570000 -76.588531 -594.075500
-10.000000 -76.471992 -593.202332
-9.440000 -76.344116 -592.199646
-8.880000 -76.227570 -591.326477
-8.330000 -76.157097 -590.750427
-7.770000 -76.016647 -589.718750
-7.210000 -75.938324 -589.053040
-6.660000 -75.831367 -588.289490
-6.110000 -75.726524 -587.435364
-5.560000 -75.577362 -586.304077
-5.010000 -75.447746 -585.281494
-3.350000 -74.736649 -579.792542
-2.820000 -74.624458 -578.969177
-2.280000 -74.513519 -578.045349
-1.740000 -74.427856 -577.410400
-1.210000 -74.329987 -576.635986
-0.680000 -74.250420 -576.070801
-0.140000 -74.186920 -575.574402
0.390000 -74.118187 -575.018311
0.920000 -74.059044 -574.571777
1.450000 -74.030777 -574.363403
1.970000 -73.995544 -574.075378
2.500000 -73.963791 -573.827209
3.030000 -73.914238 -573.490234
3.560000 -73.882484 -573.242065
4.080000 -73.834175 -572.804626
4.610000 -73.777641 -572.387939
5.130000 -73.721985 -571.981262
5.660000 -73.686752 -571.693237
6.180000 -73.658485 -571.484924
6.710000 -73.631088 -571.286560
7.230000 -73.622375 -571.186951
7.760000 -73.595856 -570.998535
8.280000 -73.591499 -570.948730
8.810000 -73.588013 -570.908875
9.330000 -73.566719 -570.780212
9.860000 -73.564102 -570.750366
10.390000 -73.559746 -570.700562
10.910000 -73.558876 -570.690552
11.440000 -73.561485 -570.720459
11.970000 -73.561485 -570.720459
12.490000 -73.567589 -570.790161
13.020000 -73.571945 -570.840027
13.550000 -73.594109 -570.978577
14.080000 -73.620636 -571.166992
14.610000 -73.634575 -571.326416
15.140000 -73.657616 -571.474976
15.680000 -73.680649 -571.623535
16.209999 -73.692848 -571.763000
16.740000 -73.719376 -571.951355
17.270000 -73.745895 -572.139771
17.809999 -73.774155 -572.348145
18.340000 -73.789848 -572.527405
18.879999 -73.820724 -572.765625
19.410000 -73.843758 -572.914185
19.950001 -73.875511 -573.162354
20.480000 -73.902031 -573.350769
21.030001 -73.943375 -573.708557
21.559999 -73.964661 -573.837158
22.100000 -73.992058 -574.035522
22.629999 -73.999901 -574.125183
23.170000 -74.022064 -574.263794
23.700001 -74.022064 -574.263794
24.219999 -74.019447 -574.233887
24.760000 -74.024681 -574.293701
25.280001 -74.006004 -574.194946
25.820000 -74.024681 -574.293701
26.350000 -74.027290 -574.323547
26.870001 -74.022064 -574.263794
27.410000 -74.034264 -574.403259
27.950001 -74.062531 -574.611572
28.480000 -74.076851 -574.660522
29.020000 -74.092537 -574.839844
29.559999 -74.118187 -575.018311
30.100000 -74.142097 -575.176819
30.639999 -74.169487 -575.375183
31.190001 -74.207336 -575.693115
31.740000 -74.239960 -575.951233
32.290001 -74.280426 -576.299011
32.840000 -74.329117 -576.626038
33.389999 -74.362610 -576.894104
33.959999 -74.434830 -577.490112
34.509998 -74.481766 -577.797180
35.060001 -74.520493 -578.125061
35.610001 -74.555725 -578.413086
36.180000 -74.615746 -578.869568
36.730000 -74.649239 -579.137695
37.279999 -74.698792 -579.474670
37.880001 -74.821442 -580.417542
38.520000 -75.018921 -581.986328
39.130001 -75.157623 -582.998047
39.759998 -75.342903 -584.427368
40.380001 -75.477753 -585.509705
40.990002 -75.601265 -586.462585
41.570000 -75.683449 -587.057678
42.169998 -75.786545 -587.891846
42.779999 -75.886154 -588.686218
43.380001 -75.998344 -589.509583
43.970001 -76.084007 -590.144531
44.580002 -76.190590 -591.018555
45.200001 -76.310623 -591.931580
45.810001 -76.407616 -592.696045
46.430000 -76.534622 -593.688721
47.209999 -76.901688 -596.507446
-15.160000 -78.179367 -602.047180
-14.570000 -78.005417 -600.747375
-13.990000 -77.885391 -599.834412
-13.410000 -77.733604 -598.673218
-12.840000 -77.606606 -597.680481
-12.260000 -77.449593 -596.459534
-11.690000 -77.331306 -595.566467
-11.130000 -77.215630 -594.703247
-10.560000 -77.109047 -593.829224
-10.000000 -76.993378 -592.966003
-9.440000 -76.879448 -592.122742
-8.880000 -76.775475 -591.278564
-8.320000 -76.666779 -590.495056
-7.770000 -76.561935 -589.640930
-7.210000 -76.469299 -588.926331
-6.660000 -76.357109 -588.102966
-6.110000 -76.239693 -587.219849
-5.560000 -76.102234 -586.107544
-5.000000 -75.933517 -584.867554
-3.900000 -75.379433 -580.599609
-3.350000 -75.231133 -579.478271
-2.810000 -75.130653 -578.673950
-2.280000 -75.013237 -577.790833
-1.740000 -74.928444 -577.165833
-1.210000 -74.850998 -576.510071
-0.680000 -74.776665 -576.004639
-0.140000 -74.706184 -575.428589
0.390000 -74.649658 -575.011963
0.920000 -74.593132 -574.595276
1.450000 -74.551788 -574.237549
1.980000 -74.530495 -574.108887
2.500000 -74.498749 -573.860718
3.030000 -74.440475 -573.424133
3.560000 -74.406982 -573.156006
4.080000 -74.369125 -572.838135
4.610000 -74.309982 -572.391602
5.130000 -74.254326 -571.984863
5.660000 -74.221703 -571.726746
6.180000 -74.192566 -571.508484
6.710000 -74.165176 -571.310059
7.230000 -74.155586 -571.200500
7.760000 -74.134293 -571.071899
8.290000 -74.130814 -571.032043
8.810000 -74.122093 -570.932434
9.340000 -74.108643 -570.893433
9.860000 -74.122093 -570.932434
10.390000 -74.120354 -570.912476
10.920000 -74.109520 -570.903381
11.440000 -74.119476 -570.902527
11.970000 -74.127327 -570.992188
12.500000 -74.126450 -570.982239
13.030000 -74.136040 -571.091797
13.560000 -74.156464 -571.210449
14.090000 -74.166046 -571.320068
14.620000 -74.189079 -571.468628
15.150000 -74.217346 -571.676941
15.680000 -74.226067 -571.776550
16.209999 -74.249100 -571.925110
16.750000 -74.280846 -572.173279
17.280001 -74.305626 -572.341797
17.809999 -74.322189 -572.531067
18.350000 -74.365646 -572.798279
18.889999 -74.378716 -572.947693
19.420000 -74.406113 -573.146057
19.959999 -74.434372 -573.354431
20.490000 -74.460022 -573.532837
21.030001 -74.496132 -573.830811
21.570000 -74.527885 -574.079041
22.110001 -74.551788 -574.237549
22.639999 -74.561378 -574.347107
23.180000 -74.583542 -574.485718
23.709999 -74.587029 -574.525574
24.240000 -74.587029 -574.525574
24.770000 -74.581795 -574.465759
25.299999 -74.587029 -574.525574
25.830000 -74.590515 -574.565430
26.360001 -74.591385 -574.575378
26.889999 -74.606575 -574.634277
27.430000 -74.615295 -574.733887
27.969999 -74.636581 -574.862488
28.500000 -74.647041 -574.982056
29.040001 -74.669205 -575.120667
29.580000 -74.681412 -575.260132
30.120001 -74.715775 -575.538208
30.670000 -74.756615 -575.775513
31.219999 -74.791855 -576.063538
31.760000 -74.828835 -576.371521
32.310001 -74.854485 -576.549927
32.860001 -74.909271 -576.946655
33.419998 -74.955833 -577.364197
33.970001 -75.008881 -577.741028
34.529999 -75.066277 -578.167664
35.080002 -75.099777 -578.435730
35.639999 -75.153687 -578.822510
36.200001 -75.192413 -579.150391
36.750000 -75.230263 -579.468323
37.330002 -75.313316 -580.073364
37.939999 -75.470329 -581.294312
38.549999 -75.611649 -582.335999
39.160000 -75.745628 -583.408386
39.799999 -75.942604 -584.856750
40.419998 -76.083557 -586.008850
41.020000 -76.193130 -586.802307
41.599998 -76.281410 -587.467102
42.209999 -76.386246 -588.321228
42.810001 -76.494949 -589.104736
43.419998 -76.598045 -589.938965
44.020000 -76.690681 -590.653564
