1401
-28.459999 -32.294712 -533.204346
-27.969999 -32.291225 -533.164490
-27.480000 -32.288609 -533.134583
-26.980000 -32.278152 -533.015076
-26.490000 -32.280766 -533.044922
-26.010000 -32.285995 -533.104736
-25.530001 -32.303425 -533.303955
-25.049999 -32.305668 -533.444275
-24.570000 -32.322227 -533.633545
-24.090000 -32.338409 -533.933289
-23.629999 -32.367668 -534.382446
-23.160000 -32.393066 -534.902222
-22.700001 -32.433277 -535.591370
-22.240000 -32.476978 -536.320313
-21.799999 -32.556038 -537.568176
-23.760000 -36.205784 -598.331299
-23.230000 -36.244251 -599.000488
-22.680000 -36.246368 -598.909973
-22.120001 -36.229813 -598.720703
-21.570000 -36.224583 -598.660889
-21.010000 -36.215370 -598.440857
-20.459999 -36.208397 -598.361145
-19.910000 -36.198315 -598.131165
-19.350000 -36.186981 -598.001648
-18.790001 -36.169056 -597.682007
-18.240000 -36.161587 -597.481934
-17.680000 -36.132824 -597.153137
-17.129999 -36.125355 -596.953064
-16.570000 -36.107426 -596.633423
-16.010000 -36.075554 -596.154358
-15.470000 -36.092113 -596.343628
10.960000 -34.901760 -576.542053
11.470000 -34.859802 -575.833008
11.990000 -34.814857 -575.204529
12.500000 -34.779003 -574.565186
13.010000 -34.741402 -573.905945
13.520000 -34.705547 -573.266663
14.030000 -34.663216 -572.668091
14.550000 -34.636074 -572.128418
15.060000 -34.599846 -571.599548
15.570000 -34.569714 -571.140442
16.080000 -34.544815 -570.741089
16.590000 -34.523773 -570.271118
17.100000 -34.508461 -569.981323
17.610001 -34.477463 -569.512268
18.120001 -34.463020 -569.232422
18.639999 -34.436874 -568.933594
19.139999 -34.421932 -568.533386
19.650000 -34.394421 -568.104126
20.160000 -34.370888 -567.835144
20.670000 -34.352959 -567.515503
21.180000 -34.327187 -567.106201
21.680000 -34.306644 -566.756653
22.190001 -34.294819 -566.506714
22.700001 -34.281246 -566.236877
23.209999 -34.262074 -566.017761
23.719999 -34.250244 -565.767822
24.200001 -34.200447 -564.969116
24.680000 -34.151020 -564.059937
25.180000 -34.130478 -563.710449
25.680000 -34.104706 -563.301086
26.170000 -34.074577 -562.841980
26.670000 -34.041832 -562.352966
27.170000 -34.024776 -562.043274
27.660000 -34.005974 -561.713684
28.160000 -33.983688 -561.344238
28.650000 -33.954807 -560.784607
29.139999 -33.930779 -560.395203
29.629999 -33.896290 -559.886292
30.120001 -33.878361 -559.566650
30.620001 -33.865665 -559.306763
31.110001 -33.841637 -558.917358
31.600000 -33.809761 -558.438293
32.090000 -33.797066 -558.178406
32.599998 -33.784863 -558.038940
33.099998 -33.770046 -557.869629
33.590000 -33.758217 -557.619690
34.099998 -33.757721 -557.499268
34.590000 -33.735062 -557.240234
35.090000 -33.733692 -557.109863
35.599998 -33.729336 -557.060059
36.099998 -33.708420 -556.820984
36.590000 -33.701820 -556.630859
37.090000 -33.687004 -556.461487
37.570000 -33.668579 -556.021423
38.070000 -33.649406 -555.802246
38.560001 -33.639320 -555.572266
39.070000 -33.637577 -555.552307
39.570000 -33.629734 -555.462708
40.080002 -33.626247 -555.422852
40.590000 -33.624504 -555.402893
41.090000 -33.618404 -555.333191
41.590000 -33.621391 -555.252625
42.099998 -33.614918 -555.293335
42.610001 -33.623135 -555.272522
43.130001 -33.621017 -555.363037
43.650002 -33.637577 -555.552307
44.180000 -33.642433 -555.722534
44.700001 -33.663349 -555.961670
45.230000 -33.669075 -556.141846
45.759998 -33.685635 -556.331116
46.270000 -33.684387 -556.431580
46.799999 -33.704433 -556.660706
47.340000 -33.720619 -556.960449
47.869999 -33.729832 -557.180481
48.400002 -33.751621 -557.429565
48.939999 -33.764320 -557.689392
49.470001 -33.770046 -557.869629
49.990002 -33.786606 -558.058899
50.520000 -33.790588 -558.219177
51.049999 -33.808891 -558.428345
51.590000 -33.820717 -558.678284
52.119999 -33.833416 -558.938171
52.669998 -33.854832 -559.297668
53.230000 -33.884087 -559.746826
53.790001 -33.914219 -560.205933
54.340000 -33.942604 -560.645142
54.880001 -33.955303 -560.905029
55.410000 -33.970989 -561.084351
55.930000 -33.969250 -561.064392
56.430000 -33.959660 -560.954834
56.939999 -33.953560 -560.885071
57.459999 -33.961403 -560.974731
57.980000 -33.963146 -560.994690
58.509998 -33.969746 -561.184814
59.040001 -33.981075 -561.314331
59.570000 -33.982445 -561.444702
60.090000 -33.982445 -561.444702
60.599998 -33.988918 -561.403992
61.119999 -33.983315 -561.454651
61.639999 -33.989414 -561.524414
62.180000 -34.005974 -561.713684
62.709999 -34.012573 -561.903809
63.259998 -34.033489 -562.142883
63.799999 -34.047062 -562.412781
64.339996 -34.053658 -562.602905
64.870003 -34.063244 -562.712463
65.400002 -34.077190 -562.871887
65.940002 -34.078560 -563.002258
66.459999 -34.084660 -563.071960
66.980003 -34.089016 -563.121765
67.510002 -34.095989 -563.201477
68.029999 -34.095989 -563.201477
68.550003 -34.097733 -563.221436
69.050003 -34.089890 -563.131775
69.570000 -34.089890 -563.131775
70.089996 -34.095989 -563.201477
70.610001 -34.094246 -563.181580
71.120003 -34.089890 -563.131775
71.639999 -34.093376 -563.171631
72.169998 -34.091255 -563.262146
72.680000 -34.087772 -563.222290
73.199997 -34.087772 -563.222290
73.709999 -34.086899 -563.212341
74.230003 -34.089516 -563.242188
74.739998 -34.095119 -563.191528
75.260002 -34.093376 -563.171631
75.769997 -34.092503 -563.161621
76.290001 -34.093376 -563.171631
76.790001 -34.081173 -563.032166
77.290001 -34.070717 -562.912598
77.790001 -34.069347 -562.782227
78.290001 -34.063244 -562.712463
78.790001 -34.052788 -562.592957
79.279999 -34.047062 -562.412781
79.769997 -34.031372 -562.233459
80.239998 -34.011703 -561.893860
80.739998 -34.001244 -561.774292
81.230003 -33.995518 -561.594116
81.709999 -33.977215 -561.384949
82.199997 -33.970615 -561.194763
82.690002 -33.954929 -561.015442
83.139999 -33.930027 -560.616089
83.620003 -33.919945 -560.386108
84.050003 -33.890190 -559.816528
84.500000 -33.862675 -559.387329
84.879997 -33.810261 -558.558716
85.339996 -33.787971 -558.189270
85.820000 -33.782246 -558.009094
86.320000 -33.774403 -557.919434
86.820000 -33.768303 -557.849670
87.300003 -33.754356 -557.690308
87.790001 -33.749504 -557.520081
88.279999 -33.739918 -557.410461
88.779999 -33.729458 -557.290955
89.269997 -33.729832 -557.180481
89.769997 -33.726345 -557.140625
90.279999 -33.724602 -557.120728
90.779999 -33.716759 -557.031067
91.300003 -33.721115 -557.080872
91.830002 -33.730701 -557.190430
92.339996 -33.734192 -557.230286
92.860001 -33.736805 -557.260193
93.360001 -33.732445 -557.210388
93.889999 -33.731201 -557.310852
94.430000 -33.743401 -557.450317
94.989998 -33.757843 -557.730164
95.540001 -33.776146 -557.939331
96.080002 -33.781872 -558.119507
96.639999 -33.793697 -558.369446
97.190002 -33.816360 -558.628479
97.790001 -33.839142 -559.118347
98.430000 -33.881100 -559.827393
99.029999 -33.911228 -560.286499
99.610001 -33.932644 -560.645996
100.190002 -33.952312 -560.985596
100.910004 -34.021786 -562.123840
101.599998 -34.084660 -563.071960
102.489998 -34.200069 -565.079590
-45.869999 -32.660957 -531.194763
-45.340000 -32.633446 -530.765503
-44.820000 -32.608543 -530.366211
-44.310001 -32.586258 -529.996704
-43.790001 -32.560486 -529.587402
-43.290001 -32.550030 -529.467834
-42.779999 -32.537331 -529.208008
-42.290001 -32.530357 -529.128296
-41.810001 -32.529484 -529.118347
-41.330002 -32.539944 -529.237854
-40.860001 -32.546539 -529.428040
-40.400002 -32.568329 -529.677063
-39.930000 -32.582771 -529.956848
-39.480000 -32.605930 -530.336304
-39.040001 -32.648758 -531.055298
-38.599998 -32.691090 -531.653870
-38.150002 -32.710384 -532.103943
-37.680000 -32.737404 -532.412720
-37.220001 -32.754459 -532.722412
-36.750000 -32.773258 -533.052063
-36.290001 -32.794674 -533.411560
-35.820000 -32.812599 -533.731201
-35.360001 -32.838371 -534.140503
-34.889999 -32.848457 -534.370483
-34.400002 -32.858044 -534.480103
-33.910000 -32.851070 -534.400391
-33.410000 -32.843601 -534.200256
-32.910000 -32.827915 -534.020996
-32.400002 -32.817829 -533.790955
-31.910000 -32.809986 -533.701294
-31.410000 -32.802143 -533.611633
-30.920000 -32.805134 -533.531067
-30.430000 -32.803391 -533.511169
-29.940001 -32.799030 -533.461365
-29.450001 -32.797287 -533.441406
-28.959999 -32.792061 -533.381653
-28.469999 -32.797287 -533.441406
-27.980000 -32.794674 -533.411560
-27.490000 -32.791187 -533.371704
-26.990000 -32.779858 -533.242188
-26.510000 -32.784214 -533.291992
-26.020000 -32.786831 -533.321899
-25.540001 -32.796417 -533.431458
-25.059999 -32.808617 -533.570923
-24.580000 -32.819572 -533.810913
-24.100000 -32.834015 -534.090698
-23.629999 -32.861530 -534.519958
-23.170000 -32.896019 -535.028870
-22.709999 -32.936230 -535.717957
-22.250000 -32.988647 -536.546570
-21.910000 -33.219349 -540.330872
-23.780001 -36.796516 -599.002380
-23.230000 -36.785561 -598.762390
-22.670000 -36.770744 -598.593018
-22.110001 -36.752815 -598.273376
-21.549999 -36.748833 -598.113159
-20.990000 -36.721317 -597.683899
-20.430000 -36.693806 -597.254639
-19.870001 -36.672886 -597.015564
11.450000 -35.326656 -574.858582
11.970000 -35.286938 -574.289917
12.480000 -35.260670 -573.760132
13.000000 -35.227924 -573.271179
13.510000 -35.186840 -572.572083
14.020000 -35.150612 -572.043213
14.530000 -35.123470 -571.503540
15.040000 -35.092468 -571.034424
15.550000 -35.057110 -570.515564
16.059999 -35.036568 -570.166016
16.580000 -35.014282 -569.796570
17.090000 -34.991123 -569.417114
17.600000 -34.969711 -569.057617
18.110001 -34.954395 -568.767883
18.620001 -34.929497 -568.368530
19.129999 -34.910698 -568.038879
19.639999 -34.888412 -567.669434
20.150000 -34.869614 -567.339783
20.650000 -34.845585 -566.950439
21.160000 -34.826782 -566.620789
21.670000 -34.798893 -566.302002
22.180000 -34.792297 -566.111877
22.680000 -34.771755 -565.762329
23.190001 -34.749092 -565.503357
23.700001 -34.746853 -565.362976
24.200001 -34.721081 -564.953674
24.680000 -34.664307 -564.075256
25.180000 -34.641151 -563.695862
25.680000 -34.613636 -563.266602
26.180000 -34.595707 -562.946960
26.670000 -34.564709 -562.477905
27.170000 -34.540676 -562.088501
27.670000 -34.525364 -561.798706
28.170000 -34.505695 -561.459167
28.650000 -34.470711 -560.829834
29.150000 -34.451908 -560.500183
29.639999 -34.421780 -560.041077
30.129999 -34.396008 -559.631775
30.620001 -34.373722 -559.262268
31.120001 -34.356667 -558.952576
31.600000 -34.322178 -558.443665
32.099998 -34.312096 -558.213684
32.599998 -34.301636 -558.094116
33.110001 -34.292919 -557.994507
33.610001 -34.284580 -557.784424
34.110001 -34.274120 -557.664917
34.610001 -34.264038 -557.434875
35.110001 -34.255322 -557.335266
35.610001 -34.240505 -557.165955
36.119999 -34.241753 -557.065430
36.610001 -34.219093 -556.806396
37.110001 -34.216850 -556.666077
37.610001 -34.199421 -556.466858
38.099998 -34.191952 -556.266724
38.599998 -34.175392 -556.077454
39.099998 -34.172279 -555.927185
39.599998 -34.164436 -555.837524
40.099998 -34.156593 -555.747864
40.599998 -34.144390 -555.608398
41.110001 -34.147381 -555.527832
41.610001 -34.143894 -555.487976
42.130001 -34.146507 -555.517822
42.630001 -34.142151 -555.468018
43.150002 -34.148251 -555.537781
43.669998 -34.151363 -555.688049
44.189999 -34.166180 -555.857422
44.720001 -34.178005 -556.107361
45.250000 -34.195438 -556.306580
45.770000 -34.197678 -556.446899
46.279999 -34.203777 -556.516663
46.810001 -34.212990 -556.736694
47.349998 -34.235649 -556.995728
47.889999 -34.254452 -557.325317
48.419998 -34.266277 -557.575256
48.950001 -34.283710 -557.774475
49.480000 -34.290306 -557.964600
50.009998 -34.308609 -558.173828
50.540001 -34.314335 -558.354004
51.070000 -34.323547 -558.574036
51.590000 -34.335751 -558.713501
52.139999 -34.359779 -559.102905
52.680000 -34.371605 -559.352844
53.230000 -34.396503 -559.752197
53.779999 -34.419662 -560.131592
54.349998 -34.455021 -560.650513
54.900002 -34.474693 -560.990051
55.430000 -34.491253 -561.179321
55.939999 -34.488640 -561.149475
56.450001 -34.486023 -561.119568
56.959999 -34.479050 -561.039856
57.470001 -34.479050 -561.039856
58.000000 -34.488640 -561.149475
58.529999 -34.492622 -561.309753
59.060001 -34.505695 -561.459167
59.590000 -34.507061 -561.589539
60.099998 -34.513538 -561.548828
60.619999 -34.506191 -561.579590
61.139999 -34.511421 -561.639343
61.660000 -34.516647 -561.699097
62.200001 -34.531467 -561.868469
62.750000 -34.547649 -562.168213
63.279999 -34.559853 -562.307678
63.820000 -34.568192 -562.517761
64.360001 -34.574791 -562.707886
64.900002 -34.592220 -562.907104
65.430000 -34.605293 -563.056580
65.959999 -34.603176 -563.147095
66.489998 -34.611023 -563.236755
67.019997 -34.621479 -563.356262
67.540001 -34.624966 -563.396118
68.059998 -34.618492 -563.436829
68.580002 -34.620235 -563.456787
69.089996 -34.627583 -563.426025
69.610001 -34.624966 -563.396118
70.129997 -34.619362 -563.446838
70.650002 -34.618492 -563.436829
71.169998 -34.624592 -563.506592
71.680000 -34.621105 -563.466736
72.209999 -34.627205 -563.536438
72.720001 -34.625462 -563.516541
73.239998 -34.627205 -563.536438
73.760002 -34.628948 -563.556396
74.279999 -34.629822 -563.566345
74.800003 -34.631565 -563.586304
75.330002 -34.636791 -563.646057
75.839996 -34.636791 -563.646057
76.349998 -34.630692 -563.576294
76.870003 -34.632435 -563.596252
77.379997 -34.627205 -563.536438
77.879997 -34.617619 -563.426880
78.389999 -34.621479 -563.356262
78.900002 -34.618866 -563.326416
79.400002 -34.609280 -563.216797
79.879997 -34.593964 -562.927063
80.330002 -34.564709 -562.477905
80.820000 -34.550762 -562.318481
81.309998 -34.541550 -562.098450
81.790001 -34.523247 -561.889282
82.290001 -34.522751 -561.768860
82.800003 -34.517521 -561.709045
83.290001 -34.507935 -561.599487
83.769997 -34.494366 -561.329651
84.230003 -34.472950 -560.970154
84.699997 -34.455894 -560.660461
85.089996 -34.406094 -559.861755
85.459999 -34.344963 -558.933533
85.879997 -34.316078 -558.373962
86.379997 -34.305618 -558.254395
86.900002 -34.311722 -558.324158
87.410004 -34.309978 -558.304199
87.900002 -34.295162 -558.134827
88.389999 -34.286446 -558.035217
88.879997 -34.285950 -557.914795
89.379997 -34.278107 -557.825134
89.900002 -34.282463 -557.874939
90.400002 -34.277233 -557.815186
90.910004 -34.276363 -557.805237
91.440002 -34.281590 -557.864990
91.940002 -34.275490 -557.795288
92.449997 -34.278976 -557.835144
92.959999 -34.273746 -557.775330
93.449997 -34.263287 -557.655823
93.959999 -34.263287 -557.655823
94.510002 -34.285076 -557.904846
95.099998 -34.313465 -558.344055
95.660004 -34.324417 -558.583984
96.220001 -34.338860 -558.863831
96.809998 -34.366375 -559.293030
97.430000 -34.398746 -559.892517
98.010002 -34.430992 -560.261108
98.559998 -34.441948 -560.501038
99.129997 -34.455517 -560.770935
99.699997 -34.473446 -561.090576
100.370003 -34.528477 -561.949036
101.160004 -34.620235 -563.456787
-45.889999 -33.160049 -531.392029
-45.369999 -33.132534 -530.962769
-44.849998 -33.113735 -530.633179
-44.340000 -33.086716 -530.324341
-43.820000 -33.070908 -529.914185
-43.320000 -33.056961 -529.754761
-42.810001 -33.046879 -529.524780
-42.330002 -33.044266 -529.494873
-41.840000 -33.042522 -529.474976
-41.360001 -33.043018 -529.595398
-40.889999 -33.058704 -529.774719
-40.430000 -33.072277 -530.044556
-39.970001 -33.090202 -530.364197
-39.509998 -33.116848 -530.783447
-39.080002 -33.167023 -531.471741
-38.619999 -33.187565 -531.821228
-38.139999 -33.195034 -532.021362
-37.669998 -33.215080 -532.250488
-37.209999 -33.231266 -532.550232
-36.740002 -33.245708 -532.830017
-36.270000 -33.265377 -533.169617
-35.810001 -33.284176 -533.499207
-35.340000 -33.316425 -533.867798
-34.869999 -33.326508 -534.097778
-34.389999 -33.340454 -534.257202
-33.900002 -33.336967 -534.217346
-33.400002 -33.327381 -534.107788
-32.900002 -33.314308 -533.958313
-32.400002 -33.307709 -533.768188
-31.910000 -33.300735 -533.688477
-31.420000 -33.292892 -533.598816
-30.930000 -33.294636 -533.618774
-30.440001 -33.297249 -533.648621
-29.950001 -33.292023 -533.588867
-29.459999 -33.293762 -533.608826
-28.969999 -33.290279 -533.568970
-28.480000 -33.290279 -533.568970
-27.990000 -33.292023 -533.588867
-27.500000 -33.293762 -533.608826
-27.010000 -33.294140 -533.498352
-26.520000 -33.289780 -533.448547
-26.030001 -33.293266 -533.488403
-25.549999 -33.293762 -533.608826
-25.070000 -33.305965 -533.748291
-24.590000 -33.312565 -533.938416
-24.110001 -33.341324 -534.267151
-23.650000 -33.364105 -534.757019
-23.180000 -33.400337 -535.285889
-22.719999 -33.446651 -536.044739
-22.270000 -33.506912 -536.963013
-21.809999 -33.560200 -537.801514
11.950000 -35.752048 -573.295593
12.470000 -35.733624 -572.855469
12.980000 -35.702248 -572.496887
13.490000 -35.674236 -571.947205
14.010000 -35.644108 -571.488098
14.520000 -35.603519 -570.909424
15.030000 -35.585964 -570.479309
15.540000 -35.554962 -570.010254
16.049999 -35.530933 -569.620850
16.559999 -35.506035 -569.221497
17.080000 -35.484245 -568.972473
17.590000 -35.462830 -568.612976
18.100000 -35.439674 -568.233521
18.600000 -35.420002 -567.893921
19.120001 -35.404690 -567.604187
19.620001 -35.379787 -567.204834
20.129999 -35.358376 -566.845337
20.639999 -35.336090 -566.475891
21.139999 -35.313431 -566.216858
21.650000 -35.292015 -565.857361
22.160000 -35.280190 -565.607422
22.670000 -35.263130 -565.297729
23.180000 -35.247444 -565.118408
23.690001 -35.239101 -564.908386
24.200001 -35.228645 -564.788818
24.690001 -35.190670 -564.240051
25.180000 -35.153072 -563.580811
25.680000 -35.136017 -563.271118
26.180000 -35.110245 -562.861816
26.670000 -35.084473 -562.452515
27.170000 -35.063931 -562.102966
27.670000 -35.048615 -561.813171
28.180000 -35.026829 -561.564148
28.660000 -34.988358 -560.894958
29.150000 -34.966942 -560.535461
29.650000 -34.946400 -560.185913
30.139999 -34.923241 -559.806458
30.629999 -34.900955 -559.437012
31.120001 -34.876057 -559.037659
31.600000 -34.833725 -558.439087
32.099998 -34.821899 -558.189148
32.610001 -34.814926 -558.109436
33.119999 -34.814926 -558.109436
33.619999 -34.805340 -557.999878
34.119999 -34.802227 -557.849548
34.619999 -34.783924 -557.640381
35.130001 -34.777824 -557.570618
35.630001 -34.776455 -557.440247
36.130001 -34.763382 -557.290833
36.630001 -34.750309 -557.141418
37.119999 -34.732380 -556.821777
37.619999 -34.724911 -556.621643
38.119999 -34.711838 -556.472229
38.619999 -34.703499 -556.262146
39.119999 -34.695652 -556.172485
39.619999 -34.686066 -556.062927
40.119999 -34.675606 -555.943359
40.619999 -34.675110 -555.822937
41.130001 -34.669880 -555.763184
41.630001 -34.661163 -555.663574
42.139999 -34.656807 -555.613708
42.650002 -34.659424 -555.643616
43.160000 -34.660294 -555.653564
43.680000 -34.672497 -555.793030
44.200001 -34.678223 -555.973267
44.740002 -34.702625 -556.252197
45.259998 -34.707481 -556.422424
45.770000 -34.710094 -556.452271
46.290001 -34.720554 -556.571838
46.830002 -34.733253 -556.831726
47.360001 -34.752426 -557.050903
47.889999 -34.770355 -557.370544
48.430000 -34.783924 -557.640381
48.970001 -34.801853 -557.960022
49.490002 -34.811440 -558.069580
50.020000 -34.822395 -558.309570
50.549999 -34.838955 -558.498840
51.090000 -34.849911 -558.738770
51.610001 -34.862110 -558.878296
52.160000 -34.880039 -559.197937
52.689999 -34.895725 -559.377258
53.240002 -34.914150 -559.817322
53.799999 -34.947769 -560.316284
54.360001 -34.971798 -560.705688
54.900002 -34.985367 -560.975525
55.439999 -35.005413 -561.204651
55.959999 -35.011513 -561.274353
56.459999 -35.003670 -561.184692
56.970001 -35.000183 -561.144836
57.490002 -35.003670 -561.184692
58.020000 -35.013256 -561.294312
58.540001 -35.007652 -561.344971
59.070000 -35.023338 -561.524292
59.610001 -35.039902 -561.713562
60.130001 -35.030811 -561.724365
60.639999 -35.030811 -561.724365
61.160000 -35.035168 -561.774231
61.689999 -35.043884 -561.873840
62.230000 -35.055710 -562.123718
62.759998 -35.065296 -562.233337
63.290001 -35.077499 -562.372803
63.830002 -35.086712 -562.592834
64.370003 -35.098911 -562.732300
64.910004 -35.112484 -563.002136
65.449997 -35.124683 -563.141602
65.989998 -35.137383 -563.401489
66.519997 -35.144356 -563.481201
67.040001 -35.148712 -563.531006
67.570000 -35.153072 -563.580811
68.080002 -35.153072 -563.580811
68.599998 -35.155685 -563.610718
69.129997 -35.150082 -563.661377
69.639999 -35.154816 -563.600708
70.169998 -35.151825 -563.681274
70.690002 -35.155312 -563.721130
71.209999 -35.157055 -563.741089
71.730003 -35.158798 -563.760986
72.250000 -35.160542 -563.780884
72.769997 -35.164898 -563.830750
73.279999 -35.161411 -563.790894
73.820000 -35.170998 -563.900452
74.349998 -35.178844 -563.990112
74.870003 -35.173241 -564.040771
75.410004 -35.185440 -564.180237
75.919998 -35.184570 -564.170288
76.440002 -35.184570 -564.170288
76.970001 -35.192413 -564.259949
77.489998 -35.195900 -564.299805
77.989998 -35.183697 -564.160339
78.510002 -35.186314 -564.190247
79.040001 -35.188057 -564.210144
79.529999 -35.171497 -564.020874
80.019997 -35.164898 -563.830750
80.449997 -35.122566 -563.232117
80.910004 -35.097668 -562.832764
81.379997 -35.081482 -562.533081
81.870003 -35.080112 -562.402649
82.379997 -35.072269 -562.313049
82.889999 -35.071400 -562.303040
83.400002 -35.064426 -562.223389
83.900002 -35.059196 -562.163574
84.400002 -35.046993 -562.024109
84.870003 -35.034294 -561.764221
85.320000 -35.005909 -561.325073
85.750000 -34.978767 -560.785339
86.110001 -34.911537 -559.787415
86.540001 -34.875305 -559.258545
87.019997 -34.864349 -559.018616
87.510002 -34.853893 -558.899048
88.010002 -34.854267 -558.788635
88.500000 -34.845551 -558.688965
89.000000 -34.839451 -558.619263
89.510002 -34.835094 -558.569458
90.010002 -34.829865 -558.509705
90.519997 -34.826378 -558.469849
91.029999 -34.824635 -558.449890
91.540001 -34.824635 -558.449890
92.070000 -34.831608 -558.529602
92.580002 -34.830734 -558.519653
93.070000 -34.829369 -558.389282
93.559998 -34.819778 -558.279663
94.070000 -34.819778 -558.279663
94.660004 -34.847294 -558.708923
95.250000 -34.875683 -559.148132
95.830002 -34.897968 -559.517578
96.419998 -34.926353 -559.956787
97.029999 -34.956982 -560.536316
97.570000 -34.969181 -560.675781
98.110001 -34.970551 -560.806152
98.650002 -34.981010 -560.925720
99.190002 -34.994953 -561.085083
99.709999 -34.996696 -561.105042
-45.919998 -33.668728 -531.698853
-45.400002 -33.642086 -531.279602
-44.880001 -33.612453 -530.940857
-44.369999 -33.601498 -530.700928
-43.849998 -33.570496 -530.231812
-43.349998 -33.560036 -530.112305
-42.849998 -33.551697 -529.902222
-42.360001 -33.548210 -529.862366
-41.880001 -33.551697 -529.902222
-41.400002 -33.556927 -529.961975
-40.919998 -33.570000 -530.111389
-40.459999 -33.585312 -530.401184
-40.009998 -33.616314 -530.870239
-39.560001 -33.646442 -531.329407
-39.090000 -33.660885 -531.609192
-38.619999 -33.665737 -531.779419
-38.139999 -33.675327 -531.888977
-37.660000 -33.691887 -532.078247
-37.200001 -33.705456 -532.348145
-36.730000 -33.716412 -532.588074
-36.259998 -33.747787 -532.946716
-35.799999 -33.769199 -533.306213
-35.330002 -33.789745 -533.655762
-34.860001 -33.798084 -533.865845
-34.380001 -33.812901 -534.035156
-33.889999 -33.812901 -534.035156
-33.400002 -33.807671 -533.975403
-32.900002 -33.800697 -533.895691
-32.410000 -33.801075 -533.785278
-31.910000 -33.793228 -533.695618
-31.420000 -33.789745 -533.655762
-30.940001 -33.795845 -533.725464
-30.450001 -33.797588 -533.745422
-29.959999 -33.801945 -533.795227
-29.469999 -33.798458 -533.755371
-28.980000 -33.801945 -533.795227
-28.500000 -33.803688 -533.815125
-28.010000 -33.795471 -533.835938
-27.520000 -33.802818 -533.805176
-27.030001 -33.801945 -533.795227
-26.540001 -33.801945 -533.795227
-26.049999 -33.801945 -533.795227
-25.559999 -33.804562 -533.825134
-25.080000 -33.812901 -534.035156
-24.610001 -33.826469 -534.304993
-24.129999 -33.856976 -534.653687
-23.660000 -33.879757 -535.143555
-23.200001 -33.922962 -535.752136
-22.750000 -33.973633 -536.560791
-22.290001 -34.026047 -537.389343
12.450000 -36.200100 -571.991577
12.970000 -36.185658 -571.711731
13.480000 -36.166859 -571.382141
13.990000 -36.136730 -570.923035
14.510000 -36.102242 -570.414063
15.020000 -36.082573 -570.074524
15.530000 -36.048958 -569.575562
16.040001 -36.022312 -569.156250
16.549999 -36.002640 -568.816711
17.059999 -35.986458 -568.516968
17.570000 -35.963299 -568.137512
18.080000 -35.929310 -567.749023
18.590000 -35.913994 -567.459229
19.100000 -35.896938 -567.149536
19.610001 -35.872910 -566.760193
20.120001 -35.851120 -566.511108
20.629999 -35.832321 -566.181519
21.129999 -35.817009 -565.891724
21.639999 -35.798210 -565.562134
22.150000 -35.774677 -565.293152
22.650000 -35.756748 -564.973511
23.160000 -35.748409 -564.763428
23.670000 -35.729233 -564.544250
24.190001 -35.724007 -564.484497
24.690001 -35.706078 -564.164856
25.190001 -35.675945 -563.705688
25.680000 -35.649677 -563.175964
26.180000 -35.624405 -562.887085
26.680000 -35.601246 -562.507629
27.170000 -35.574604 -562.088379
27.680000 -35.561031 -561.818542
28.180000 -35.543976 -561.508850
28.670000 -35.517334 -561.089600
29.160000 -35.492432 -560.690247
29.660000 -35.464542 -560.371460
30.150000 -35.441383 -559.992004
30.639999 -35.412128 -559.542847
31.139999 -35.397686 -559.263062
31.620001 -35.364445 -558.653625
32.119999 -35.347012 -558.454407
32.619999 -35.339169 -558.364746
33.130001 -35.343029 -558.294128
33.639999 -35.334316 -558.194519
34.139999 -35.322113 -558.055054
34.639999 -35.313770 -557.844971
35.139999 -35.304184 -557.735413
35.650002 -35.293728 -557.615845
36.150002 -35.287624 -557.546082
36.650002 -35.279285 -557.336060
37.139999 -35.266586 -557.076172
37.639999 -35.251770 -556.906799
38.139999 -35.236954 -556.737427
38.639999 -35.225998 -556.497498
39.139999 -35.217281 -556.397888
39.639999 -35.212429 -556.227661
40.150002 -35.210686 -556.207703
40.650002 -35.199352 -556.078247
41.150002 -35.191509 -555.988586
41.650002 -35.183666 -555.898926
42.150002 -35.179684 -555.738647
42.650002 -35.174454 -555.678894
43.169998 -35.184040 -555.788452
43.700001 -35.195869 -556.038391
44.230000 -35.205952 -556.268372
44.770000 -35.232098 -556.567200
45.290001 -35.234341 -556.707581
45.810001 -35.245670 -556.837097
46.320000 -35.246540 -556.847046
46.849998 -35.254009 -557.047119
47.380001 -35.276669 -557.306152
47.919998 -35.290241 -557.575989
48.450001 -35.304684 -557.855774
48.990002 -35.326469 -558.104858
49.509998 -35.330456 -558.265137
50.049999 -35.353985 -558.534058
50.580002 -35.361454 -558.734192
51.110001 -35.376270 -558.903564
51.639999 -35.381996 -559.083740
52.169998 -35.404659 -559.342773
52.709999 -35.412128 -559.542847
53.259998 -35.440514 -559.982056
53.820000 -35.465412 -560.381409
54.360001 -35.486828 -560.740906
54.910000 -35.513847 -561.049744
55.450001 -35.523060 -561.269775
55.970001 -35.527416 -561.319580
56.480000 -35.526546 -561.309631
56.990002 -35.523930 -561.279724
57.509998 -35.527416 -561.319580
58.029999 -35.533520 -561.389282
58.570000 -35.539246 -561.569519
59.099998 -35.554062 -561.738831
59.630001 -35.563648 -561.848450
60.139999 -35.563648 -561.848450
60.660000 -35.557171 -561.889160
61.189999 -35.565887 -561.988770
61.730000 -35.580704 -562.158142
62.259998 -35.586430 -562.338318
62.790001 -35.596889 -562.457825
63.320000 -35.603863 -562.537537
63.840000 -35.612576 -562.637146
64.379997 -35.619175 -562.827332
64.940002 -35.637100 -563.146973
65.489998 -35.661507 -563.425903
66.019997 -35.667233 -563.606079
66.550003 -35.675945 -563.705688
67.080002 -35.682919 -563.785400
67.599998 -35.683792 -563.795349
68.120003 -35.689022 -563.855164
68.639999 -35.688148 -563.845154
69.160004 -35.683418 -563.905823
69.690002 -35.689518 -563.975525
70.209999 -35.688644 -563.965576
70.730003 -35.693005 -564.015381
71.250000 -35.690388 -563.985535
71.769997 -35.694748 -564.035339
72.290001 -35.696491 -564.055237
72.809998 -35.701717 -564.114990
73.349998 -35.715664 -564.274414
73.889999 -35.717903 -564.414734
74.419998 -35.728363 -564.534302
74.959999 -35.739693 -564.663818
75.500000 -35.742805 -564.814087
76.029999 -35.753262 -564.933655
76.559998 -35.758492 -564.993408
77.080002 -35.760235 -565.013306
77.620003 -35.760731 -565.133728
78.139999 -35.763348 -565.163635
78.650002 -35.761604 -565.143738
79.169998 -35.758987 -565.113831
79.690002 -35.756374 -565.083923
80.199997 -35.762852 -565.043213
80.690002 -35.748905 -564.883850
81.139999 -35.716160 -564.394836
81.580002 -35.677315 -563.836060
82.050003 -35.659389 -563.516418
82.540001 -35.655403 -563.356140
83.040001 -35.648434 -563.276489
83.570000 -35.651047 -563.306335
84.080002 -35.651047 -563.306335
84.570000 -35.635361 -563.127014
85.059998 -35.628761 -562.936890
85.529999 -35.600872 -562.618103
85.989998 -35.577713 -562.238708
86.440002 -35.552814 -561.839355
86.860001 -35.519573 -561.229919
87.269997 -35.473755 -560.591492
87.709999 -35.451843 -560.111572
88.150002 -35.420841 -559.642456
88.650002 -35.414742 -559.572754
89.139999 -35.399055 -559.393433
89.629997 -35.399429 -559.282959
90.139999 -35.393330 -559.213257
90.639999 -35.389843 -559.173401
91.160004 -35.391586 -559.193298
91.680000 -35.398556 -559.273010
92.199997 -35.391209 -559.303772
92.739998 -35.401669 -559.423340
93.250000 -35.400799 -559.413330
93.769997 -35.403412 -559.443237
94.320000 -35.424328 -559.682312
94.889999 -35.441383 -559.992004
95.480003 -35.469772 -560.431213
96.070000 -35.500774 -560.900269
96.669998 -35.520943 -561.360291
97.239998 -35.549702 -561.689026
97.769997 -35.543228 -561.729736
98.209999 -35.519199 -561.340393
98.669998 -35.501270 -561.020691
99.139999 -35.489445 -560.770813
-45.939999 -34.166077 -531.876160
-45.419998 -34.149017 -531.566467
-44.910000 -34.116772 -531.197876
-44.400002 -34.109303 -530.997803
-43.880001 -34.087887 -530.638306
-43.380001 -34.072201 -530.458984
-42.889999 -34.059998 -530.319519
-42.400002 -34.065601 -530.268799
-41.910000 -34.062988 -530.238953
-41.430000 -34.063484 -530.359375
-40.970001 -34.087887 -530.638306
-40.509998 -34.105816 -530.957947
-40.040001 -34.122871 -531.267639
-39.570000 -34.142048 -531.486816
-39.090000 -34.148148 -531.556519
-38.599998 -34.148148 -531.556519
-38.130001 -34.153004 -531.726746
-37.650002 -34.168690 -531.906067
-37.180000 -34.177902 -532.126099
-36.709999 -34.200562 -532.385132
-36.250000 -34.221977 -532.744629
-35.790001 -34.242519 -533.094177
-35.320000 -34.261318 -533.423767
-34.849998 -34.286594 -533.712646
-34.369999 -34.285347 -533.813171
-33.880001 -34.293194 -533.902832
-33.389999 -34.288834 -533.853027
-32.900002 -34.290577 -533.872925
-32.410000 -34.286594 -533.712646
-31.920000 -34.278378 -533.733459
-31.430000 -34.287464 -533.722656
-30.950001 -34.287964 -533.843018
-30.459999 -34.289707 -533.862976
-29.969999 -34.294933 -533.922729
-29.490000 -34.299294 -533.972534
-29.000000 -34.297550 -533.952637
-28.510000 -34.296677 -533.942688
-28.020000 -34.301907 -534.002441
-27.530001 -34.309753 -534.092102
-27.040001 -34.304523 -534.032288
-26.549999 -34.295807 -533.932678
-26.059999 -34.298420 -533.962585
-25.580000 -34.309376 -534.202515
-25.100000 -34.322449 -534.351990
-24.629999 -34.343864 -534.711487
-24.160000 -34.369637 -535.120789
-23.690001 -34.399765 -535.579895
-23.230000 -34.450813 -536.278137
-22.770000 -34.502357 -537.096741
12.950000 -36.659981 -570.937439
13.470000 -36.644669 -570.647705
13.980000 -36.620262 -570.368774
14.500000 -36.598850 -570.009277
15.010000 -36.571335 -569.580017
15.520000 -36.536846 -569.071106
16.030001 -36.517178 -568.731506
16.540001 -36.494892 -568.362061
17.049999 -36.479576 -568.072266
17.559999 -36.455547 -567.682922
18.070000 -36.432888 -567.423889
18.580000 -36.401016 -566.944824
19.090000 -36.386574 -566.665039
19.600000 -36.371262 -566.375244
20.110001 -36.346855 -566.096313
20.620001 -36.335030 -565.846436
21.120001 -36.319717 -565.556641
21.629999 -36.293945 -565.147339
22.129999 -36.273899 -564.918213
22.639999 -36.260330 -564.648376
23.150000 -36.239410 -564.409302
23.660000 -36.229328 -564.179260
24.170000 -36.220612 -564.079651
24.680000 -36.204926 -563.900330
25.190001 -36.200069 -563.730103
25.680000 -36.159481 -563.151428
26.180000 -36.140682 -562.821838
26.680000 -36.123627 -562.512146
27.180000 -36.099594 -562.122742
27.680000 -36.072578 -561.813965
28.180000 -36.056393 -561.514221
28.670000 -36.031494 -561.114868
29.170000 -36.011822 -560.775269
29.670000 -35.995636 -560.475525
30.160000 -35.964260 -560.116943
30.650000 -35.935875 -559.677734
31.150000 -35.922306 -559.407898
31.639999 -35.897404 -559.008545
32.139999 -35.885578 -558.758606
32.639999 -35.872505 -558.609192
33.150002 -35.863789 -558.509583
33.650002 -35.850716 -558.360107
34.150002 -35.845860 -558.189880
34.650002 -35.829300 -558.000610
35.150002 -35.825317 -557.840393
35.660000 -35.817474 -557.750732
36.160000 -35.809631 -557.661072
36.660000 -35.803905 -557.480896
37.160000 -35.788216 -557.301575
37.660000 -35.769039 -557.082397
38.160000 -35.767673 -556.952026
38.660000 -35.751114 -556.762756
39.160000 -35.745388 -556.582520
39.660000 -35.733185 -556.443054
40.160000 -35.727085 -556.373352
40.660000 -35.714882 -556.233887
41.169998 -35.720486 -556.183228
41.669998 -35.710899 -556.073608
42.169998 -35.701313 -555.964050
42.680000 -35.696083 -555.904236
43.200001 -35.710030 -556.063660
43.730000 -35.720112 -556.293640
44.259998 -35.748001 -556.612427
44.799999 -35.766804 -556.942078
45.320000 -35.771656 -557.112305
45.840000 -35.780373 -557.211914
46.360001 -35.784729 -557.261719
46.880001 -35.796932 -557.401184
47.410000 -35.807014 -557.631165
47.950001 -35.820583 -557.901001
48.470001 -35.833660 -558.050415
49.009998 -35.854576 -558.289551
49.540001 -35.867275 -558.549438
50.070000 -35.877731 -558.668945
50.599998 -35.887817 -558.898926
51.130001 -35.898773 -559.138916
51.660000 -35.913589 -559.308289
52.200001 -35.933636 -559.537415
52.730000 -35.942848 -559.757446
53.290001 -35.969490 -560.176697
53.830002 -35.989162 -560.516296
54.389999 -36.016678 -560.945496
54.930000 -36.038467 -561.194580
55.459999 -36.043320 -561.364807
55.980000 -36.049419 -561.434509
56.500000 -36.051163 -561.454468
57.009998 -36.048550 -561.424561
57.540001 -36.055523 -561.504272
58.060001 -36.059879 -561.554077
58.590000 -36.062992 -561.704346
59.119999 -36.075191 -561.843811
59.639999 -36.083908 -561.943420
60.160000 -36.087395 -561.983276
60.689999 -36.089634 -562.123657
61.220001 -36.097481 -562.213318
61.759998 -36.112293 -562.382629
62.290001 -36.115406 -562.532959
62.810001 -36.122379 -562.612610
63.349998 -36.135452 -562.762085
63.880001 -36.141178 -562.942261
64.430000 -36.164711 -563.211243
64.980003 -36.180023 -563.500977
65.510002 -36.190483 -563.620544
66.050003 -36.192722 -563.760864
66.580002 -36.205795 -563.910278
67.099998 -36.208408 -563.940186
67.639999 -36.219742 -564.069702
68.150002 -36.217999 -564.049744
68.669998 -36.217999 -564.049744
69.199997 -36.224098 -564.119507
69.720001 -36.225842 -564.139404
70.239998 -36.220238 -564.190125
70.769997 -36.224594 -564.239929
71.290001 -36.227211 -564.269836
71.820000 -36.235054 -564.359436
72.349998 -36.243771 -564.459106
72.889999 -36.249496 -564.639282
73.410004 -36.253853 -564.689087
73.959999 -36.271282 -564.888306
74.510002 -36.282242 -565.128296
75.059998 -36.300541 -565.337463
75.599998 -36.307140 -565.527649
76.139999 -36.317600 -565.647156
76.669998 -36.325443 -565.736816
77.199997 -36.323326 -565.827332
77.730003 -36.327682 -565.877197
78.269997 -36.344242 -566.066467
78.790001 -36.344242 -566.066467
79.320000 -36.347729 -566.106262
79.839996 -36.347729 -566.106262
80.330002 -36.333782 -565.946899
80.849998 -36.330296 -565.907043
81.360001 -36.324196 -565.837341
81.830002 -36.308010 -565.537598
82.300003 -36.287468 -565.188049
82.779999 -36.272156 -564.898254
83.279999 -36.262569 -564.788696
83.750000 -36.248127 -564.508911
84.269997 -36.246384 -564.488953
84.739998 -36.221107 -564.200073
85.220001 -36.210152 -563.960144
85.709999 -36.191853 -563.750916
86.180000 -36.177410 -563.471130
86.650002 -36.159481 -563.151428
87.080002 -36.120636 -562.592712
87.500000 -36.075691 -561.964233
87.910004 -36.039833 -561.324951
88.360001 -36.015804 -560.935547
88.830002 -36.000492 -560.645752
89.309998 -35.979572 -560.406677
89.779999 -35.966877 -560.146790
90.260002 -35.949444 -559.947571
90.779999 -35.949444 -559.947571
91.290001 -35.948574 -559.937622
91.820000 -35.956417 -560.027283
92.349998 -35.963390 -560.106934
92.900002 -35.972603 -560.326965
93.440002 -35.990032 -560.526245
93.970001 -35.994392 -560.576050
94.540001 -36.013191 -560.905640
95.099998 -36.028503 -561.195435
95.699997 -36.057762 -561.644592
96.290001 -36.087891 -562.103699
96.849998 -36.098846 -562.343689
97.400002 -36.115406 -562.532959
97.919998 -36.119762 -562.582764
-46.490002 -34.696167 -532.542542
-45.959999 -34.665169 -532.073425
-45.450001 -34.651596 -531.803589
-44.939999 -34.627193 -531.524658
-44.430000 -34.617981 -531.304626
-43.919998 -34.592705 -531.015747
-43.419998 -34.589596 -530.865417
-42.919998 -34.575649 -530.706055
-42.439999 -34.582623 -530.785706
-41.959999 -34.582623 -530.785706
-41.490002 -34.590961 -530.995789
-41.009998 -34.605778 -531.165161
-40.540001 -34.623211 -531.364380
-40.060001 -34.622833 -531.474854
-39.570000 -34.622833 -531.474854
-39.080002 -34.626698 -531.404236
-38.599998 -34.620220 -531.444946
-38.119999 -34.634167 -531.604370
-37.650002 -34.646366 -531.743835
-37.169998 -34.653835 -531.943909
-36.700001 -34.677368 -532.212891
-36.240002 -34.701397 -532.602295
-35.779999 -34.718452 -532.911987
-35.310001 -34.737251 -533.241577
-34.840000 -34.765144 -533.560364
-34.369999 -34.771740 -533.750549
-33.880001 -34.777840 -533.820251
-33.389999 -34.774357 -533.780396
-32.910000 -34.780457 -533.850159
-32.419998 -34.782200 -533.870056
-31.930000 -34.780457 -533.850159
-31.440001 -34.782200 -533.870056
-30.959999 -34.790916 -533.969666
-30.469999 -34.793156 -534.110046
-29.980000 -34.793156 -534.110046
-29.500000 -34.795769 -534.139893
-29.010000 -34.797512 -534.159851
-28.520000 -34.797512 -534.159851
-28.030001 -34.797512 -534.159851
-27.549999 -34.805355 -534.249512
-27.059999 -34.807098 -534.269409
-26.570000 -34.814941 -534.359070
-26.090000 -34.822788 -534.448730
-25.600000 -34.822414 -534.559204
-25.120001 -34.845943 -534.828186
-24.650000 -34.867359 -535.187683
-24.180000 -34.895744 -535.626831
-23.730000 -34.944675 -536.415588
-23.260000 -34.993107 -537.083923
13.450000 -37.121605 -569.903320
13.970000 -37.112019 -569.793701
14.480000 -37.090603 -569.434204
14.990000 -37.059227 -569.075562
15.510000 -37.036068 -568.696167
16.020000 -37.014656 -568.336670
16.530001 -36.989754 -567.937317
17.040001 -36.970955 -567.607666
17.549999 -36.944809 -567.308838
18.059999 -36.926010 -566.979187
18.559999 -36.897621 -566.540039
19.080000 -36.885796 -566.290100
19.590000 -36.864880 -566.051025
20.100000 -36.852180 -565.791138
20.600000 -36.827778 -565.512207
21.110001 -36.811592 -565.212463
21.620001 -36.794537 -564.902771
22.129999 -36.770130 -564.623840
22.629999 -36.749588 -564.274292
23.139999 -36.738632 -564.034363
23.639999 -36.717716 -563.795227
24.160000 -36.710743 -563.715576
24.670000 -36.713734 -563.635010
25.190001 -36.713734 -563.635010
25.680000 -36.682732 -563.165894
26.180000 -36.662189 -562.816345
26.680000 -36.635170 -562.507568
27.190001 -36.618984 -562.207825
27.680000 -36.597572 -561.848328
28.180000 -36.567066 -561.499634
28.680000 -36.548267 -561.170044
29.180000 -36.529469 -560.840393
29.680000 -36.516769 -560.580505
30.170000 -36.489754 -560.271729
30.660000 -36.465721 -559.882324
31.160000 -36.444309 -559.522827
31.660000 -36.432484 -559.272888
32.160000 -36.412437 -559.043762
32.660000 -36.394135 -558.834595
33.160000 -36.391022 -558.684265
33.660000 -36.376205 -558.514893
34.169998 -36.365746 -558.395386
34.669998 -36.357407 -558.185303
35.169998 -36.343460 -558.025940
35.669998 -36.335617 -557.936279
36.180000 -36.332504 -557.785950
36.680000 -36.320305 -557.646484
37.180000 -36.308102 -557.507019
37.680000 -36.304993 -557.356750
38.180000 -36.291916 -557.207275
38.680000 -36.282703 -556.987244
39.180000 -36.272247 -556.867737
39.680000 -36.254814 -556.668457
40.180000 -36.254318 -556.548035
40.680000 -36.244732 -556.438477
41.189999 -36.246475 -556.458374
41.700001 -36.244732 -556.438477
42.200001 -36.233402 -556.308960
42.709999 -36.231659 -556.289063
43.230000 -36.242989 -556.418579
43.759998 -36.258301 -556.708313
44.299999 -36.282703 -556.987244
44.820000 -36.291916 -557.207275
45.349998 -36.309349 -557.406555
45.880001 -36.311588 -557.546875
46.400002 -36.320305 -557.646484
46.919998 -36.330761 -557.766052
47.439999 -36.334743 -557.926270
47.970001 -36.352177 -558.125549
48.500000 -36.365250 -558.274963
49.040001 -36.381435 -558.574707
49.570000 -36.398865 -558.773926
50.099998 -36.412437 -559.043762
50.639999 -36.426006 -559.313599
51.169998 -36.442566 -559.502869
51.700001 -36.452152 -559.612488
52.230000 -36.459621 -559.812561
52.759998 -36.481411 -560.061646
53.320000 -36.505440 -560.451050
53.860001 -36.519882 -560.730835
54.410000 -36.540424 -561.080383
54.950001 -36.562214 -561.329407
55.480000 -36.564453 -561.469788
55.990002 -36.567066 -561.499634
56.509998 -36.569683 -561.529541
57.029999 -36.575783 -561.599243
57.560001 -36.582756 -561.678955
58.080002 -36.587986 -561.738708
58.610001 -36.592838 -561.908936
59.139999 -36.603298 -562.028503
59.660000 -36.605042 -562.048401
60.189999 -36.615501 -562.167969
60.720001 -36.617741 -562.308289
61.250000 -36.628197 -562.427856
61.790001 -36.646500 -562.637024
62.320000 -36.647869 -562.767456
62.860001 -36.669659 -563.016479
63.400002 -36.672771 -563.166748
63.939999 -36.690201 -563.366028
64.480003 -36.705891 -563.545349
65.019997 -36.712486 -563.735474
65.550003 -36.723816 -563.864990
66.080002 -36.732533 -563.964600
66.610001 -36.733902 -564.094971
67.150002 -36.746975 -564.244385
67.669998 -36.751331 -564.294250
68.190002 -36.753075 -564.314148
68.720001 -36.760048 -564.393860
69.250000 -36.756187 -564.464417
69.769997 -36.761417 -564.524231
70.300003 -36.769260 -564.613892
70.820000 -36.771873 -564.643738
71.360001 -36.782333 -564.763306
71.879997 -36.785820 -564.803162
72.410004 -36.786316 -564.923584
72.949997 -36.798519 -565.063049
73.519997 -36.822548 -565.452393
74.070000 -36.839977 -565.651672
74.620003 -36.854420 -565.931458
75.169998 -36.869236 -566.100830
75.709999 -36.876705 -566.300903
76.239998 -36.878448 -566.320862
76.769997 -36.888035 -566.430420
77.309998 -36.901981 -566.589844
77.860001 -36.908577 -566.779968
78.400002 -36.921650 -566.929382
78.940002 -36.922150 -567.049805
79.480003 -36.934349 -567.189270
79.989998 -36.929119 -567.129517
80.500000 -36.924763 -567.079712
81.029999 -36.926506 -567.099609
81.529999 -36.925137 -566.969238
82.010002 -36.898991 -566.670410
82.519997 -36.898121 -566.660461
82.980003 -36.868862 -566.211243
83.500000 -36.871475 -566.241150
84.019997 -36.869732 -566.221252
84.449997 -36.840851 -565.661621
84.930000 -36.814705 -565.362793
85.410004 -36.802876 -565.112854
85.879997 -36.784946 -564.793213
86.379997 -36.773617 -564.663696
86.849998 -36.750957 -564.404663
87.309998 -36.726055 -564.005310
87.739998 -36.698044 -563.455688
88.110001 -36.638657 -562.547363
88.519997 -36.591095 -561.889038
89.000000 -36.579269 -561.639099
89.480003 -36.559223 -561.409973
89.949997 -36.547398 -561.160095
90.419998 -36.522121 -560.871155
90.949997 -36.529095 -560.950867
91.529999 -36.555737 -561.370117
92.099998 -36.580139 -561.649048
92.669998 -36.598942 -561.978699
93.199997 -36.609398 -562.098206
93.730003 -36.608154 -562.198730
94.279999 -36.624714 -562.388000
94.839996 -36.635670 -562.627930
95.430000 -36.664055 -563.067139
96.120003 -36.727798 -564.025269
96.629997 -36.724316 -563.985413
97.059998 -36.689827 -563.476440
-46.490002 -35.182560 -532.479858
-45.970001 -35.152927 -532.141174
-45.459999 -35.141972 -531.901245
-44.959999 -35.128899 -531.751770
-44.459999 -35.128403 -531.631348
-43.950001 -35.102257 -531.332520
-43.450001 -35.091797 -531.212952
-42.959999 -35.092171 -531.102539
-42.470001 -35.090427 -531.082581
-41.990002 -35.100887 -531.202148
-41.509998 -35.095284 -531.252808
-41.029999 -35.098770 -531.292664
-40.540001 -35.105740 -531.372375
-40.060001 -35.104870 -531.362427
-39.560001 -35.098770 -531.292664
-39.080002 -35.097027 -531.272766
-38.590000 -35.102257 -531.332520
-38.119999 -35.112713 -531.452087
-37.639999 -35.122299 -531.561646
-37.160000 -35.131512 -531.781677
-36.700001 -35.157661 -532.080505
-36.240002 -35.179073 -532.440063
-35.770000 -35.200489 -532.799561
-35.310001 -35.224518 -533.188904
-34.840000 -35.248051 -533.457886
-34.360001 -35.253777 -533.638062
-33.880001 -35.262489 -533.737732
-33.389999 -35.268593 -533.807434
-32.910000 -35.276436 -533.897095
-32.419998 -35.277306 -533.907043
-31.930000 -35.279049 -533.927002
-31.450001 -35.285152 -533.996704
-30.959999 -35.282162 -534.077271
-30.480000 -35.295235 -534.226685
-30.000000 -35.300465 -534.286499
-29.510000 -35.308308 -534.376160
-29.020000 -35.308308 -534.376160
-28.530001 -35.308308 -534.376160
-28.040001 -35.306564 -534.356201
-27.559999 -35.312668 -534.425964
-27.080000 -35.319263 -534.616089
-26.590000 -35.322750 -534.655945
-26.110001 -35.341923 -534.875122
-25.629999 -35.348522 -535.065247
-25.150000 -35.369438 -535.304321
-24.680000 -35.401314 -535.783386
-24.209999 -35.435799 -536.292297
-23.760000 -35.479500 -537.021301
13.950000 -37.575878 -568.899902
14.460000 -37.558449 -568.700623
14.980000 -37.549236 -568.480591
15.490000 -37.521347 -568.161804
16.000000 -37.500805 -567.812317
16.520000 -37.485489 -567.522522
17.030001 -37.460217 -567.233643
17.530001 -37.432701 -566.804382
18.040001 -37.412159 -566.454834
18.549999 -37.398586 -566.184998
19.059999 -37.377670 -565.945923
19.570000 -37.356255 -565.586426
20.080000 -37.343182 -565.437012
20.590000 -37.327000 -565.137268
21.100000 -37.313427 -564.867432
21.610001 -37.286407 -564.558594
22.110001 -37.271969 -564.278809
22.620001 -37.251427 -563.929260
23.120001 -37.230507 -563.690186
23.629999 -37.218681 -563.440247
24.139999 -37.205608 -563.290833
24.650000 -37.201248 -563.241028
25.170000 -37.204735 -563.280823
25.680000 -37.192535 -563.141357
26.180000 -37.168507 -562.752014
26.680000 -37.144478 -562.362610
27.190001 -37.127918 -562.173340
27.680000 -37.107372 -561.823792
28.180000 -37.092934 -561.544006
28.680000 -37.070648 -561.174500
29.180000 -37.047985 -560.915527
29.680000 -37.032673 -560.625732
30.180000 -37.009140 -560.356750
30.680000 -36.993828 -560.067017
31.170000 -36.975899 -559.747375
31.670000 -36.951496 -559.468384
32.160000 -36.933571 -559.148743
32.669998 -36.918751 -558.979431
33.169998 -36.912155 -558.789246
33.669998 -36.896465 -558.609924
