1382
-60.599998 -11.876278 -617.183472
-59.980000 -11.869933 -616.652039
-59.340000 -11.846532 -615.810852
-58.080002 -11.720594 -608.634521
-57.369999 -11.695084 -607.080811
-56.639999 -11.659865 -605.186707
-55.980000 -11.636342 -604.114685
-55.299999 -11.613944 -602.711304
-54.669998 -11.600504 -601.869263
-54.049999 -11.585819 -601.127686
-53.470001 -11.576981 -600.797241
-52.900002 -11.573373 -600.526489
-52.330002 -11.565032 -600.316406
-51.770000 -11.566279 -600.215942
-51.220001 -11.565407 -600.205994
-50.669998 -11.567525 -600.115417
-50.119999 -11.571883 -600.165283
-49.590000 -11.571133 -600.386169
-49.049999 -11.573373 -600.526489
-48.509998 -11.576859 -600.566345
-47.970001 -11.582586 -600.746521
-47.439999 -11.580093 -600.947510
-46.900002 -11.585819 -601.127686
-46.360001 -11.586316 -601.248108
-45.820000 -11.587684 -601.378479
-45.279999 -11.597271 -601.488098
-44.720001 -11.591170 -601.418335
-44.169998 -11.593288 -601.327820
-43.619999 -11.591545 -601.307861
-43.049999 -11.583204 -601.097839
-42.490002 -11.580964 -600.957458
-41.939999 -11.583954 -600.876892
-41.380001 -11.584329 -600.766479
-40.820000 -11.582089 -600.626099
-40.270000 -11.577731 -600.576294
-39.709999 -11.574620 -600.426025
-39.160000 -11.572005 -600.396118
-38.610001 -11.570262 -600.376221
-38.049999 -11.577609 -600.345459
-37.500000 -11.574123 -600.305603
-36.959999 -11.570262 -600.376221
-36.419998 -11.573373 -600.526489
-35.880001 -11.585200 -600.776428
-35.340000 -11.590055 -600.946655
-34.790001 -11.589183 -600.936707
-34.240002 -11.588312 -600.926697
-33.689999 -11.584329 -600.766479
-33.119999 -11.580720 -600.495728
-32.549999 -11.570140 -600.145325
-31.980000 -11.560806 -599.694458
-31.420000 -11.556326 -599.413757
-30.840000 -11.544377 -598.932983
-30.280001 -11.545501 -598.601624
-29.700001 -11.531809 -598.100891
-29.139999 -11.531191 -597.749634
-28.570000 -11.520113 -597.278809
-28.010000 -11.507790 -596.908447
-27.440001 -11.501942 -596.497375
-26.879999 -11.498333 -596.226685
-26.330000 -11.495597 -595.965942
-25.770000 -11.486759 -595.635437
-25.219999 -11.481905 -595.465210
-24.670000 -11.480537 -595.334839
-24.120001 -11.477425 -595.184509
-23.570000 -11.479543 -595.093994
-23.020000 -11.481286 -595.113953
-22.480000 -11.478672 -595.084045
-21.920000 -11.476806 -594.833252
-21.360001 -11.459131 -594.172302
-20.780001 -11.446067 -593.219788
-20.219999 -11.430135 -592.578735
-19.660000 -11.425656 -592.298035
-19.120001 -11.428148 -592.097107
-18.570000 -11.425037 -591.946777
-18.030001 -11.419808 -591.887024
-17.480000 -11.418064 -591.867065
-16.940001 -11.425412 -591.836304
-16.389999 -11.411842 -591.566467
-15.850000 -11.413463 -591.355530
-15.300000 -11.402882 -591.005127
-14.750000 -11.405375 -590.804138
-14.210000 -11.401889 -590.764282
-13.670000 -11.401392 -590.643860
-13.130000 -11.404878 -590.683716
-12.590000 -11.403632 -590.784241
-12.050000 -11.404503 -590.794189
-11.510000 -11.401514 -590.874756
-10.980000 -11.407240 -591.054932
-10.440000 -11.412094 -591.225159
-9.900000 -11.416949 -591.395386
-9.360000 -11.415703 -591.495850
-8.820000 -11.413960 -591.475952
-8.280000 -11.417821 -591.405334
-7.740000 -11.415206 -591.375488
-7.200000 -11.416077 -591.385437
-6.660000 -11.414831 -591.485901
-6.120000 -11.416199 -591.616272
-5.580000 -11.423669 -591.816406
-5.040000 -11.420304 -592.007446
-4.500000 -11.433003 -592.267334
-3.960000 -11.438851 -592.678345
-3.420000 -11.443452 -593.189880
-2.880000 -11.464614 -593.890747
-2.350000 -11.474689 -594.923767
23.730000 -11.714502 -607.761719
24.230000 -11.684756 -606.389099
24.740000 -11.668206 -605.396790
25.280001 -11.654514 -604.896057
25.830000 -11.654514 -604.896057
26.389999 -11.659368 -605.066284
26.959999 -11.663848 -605.346985
27.520000 -11.672686 -605.677429
28.090000 -11.681026 -605.887512
28.650000 -11.679405 -606.098450
29.219999 -11.683388 -606.258728
29.770000 -11.683013 -606.369202
30.340000 -11.691354 -606.579224
30.910000 -11.694962 -606.849976
31.480000 -11.694213 -607.070862
32.049999 -11.707408 -607.451172
32.619999 -11.712759 -607.741821
33.209999 -11.715618 -608.233398
33.790001 -11.723209 -608.664429
34.369999 -11.734286 -609.135254
34.950001 -11.737520 -609.516418
35.529999 -11.748972 -609.876770
36.099998 -11.752580 -610.147461
36.680000 -11.759674 -610.458069
37.250000 -11.765400 -610.638245
37.820000 -11.765522 -610.869080
38.389999 -11.772120 -611.059265
38.980000 -11.772739 -611.410522
39.549999 -11.775475 -611.671265
40.119999 -11.781201 -611.851501
40.689999 -11.788174 -611.931152
41.259998 -11.786056 -612.021729
41.820000 -11.790414 -612.071533
42.380001 -11.787424 -612.152100
42.950001 -11.787921 -612.272522
43.520000 -11.792279 -612.322327
44.090000 -11.797133 -612.492554
44.669998 -11.798998 -612.743347
45.240002 -11.799495 -612.863708
45.820000 -11.807836 -613.073792
46.389999 -11.806214 -613.284729
46.970001 -11.810197 -613.445007
47.529999 -11.817170 -613.524719
48.090000 -11.806711 -613.405151
48.630001 -11.810947 -613.224121
49.130001 -11.794518 -612.462646
49.639999 -11.776843 -611.801697
50.110001 -11.762411 -610.718811
50.590000 -11.740256 -609.777161
51.070000 -11.722459 -608.885315
51.570000 -11.715618 -608.233398
52.070000 -11.703547 -607.521790
52.570000 -11.688487 -606.890686
53.070000 -11.683013 -606.369202
53.599998 -11.670690 -605.998840
54.110001 -11.661355 -605.547913
54.619999 -11.658497 -605.056335
55.130001 -11.649163 -604.605408
55.650002 -11.644186 -604.204346
56.160000 -11.635723 -603.763367
56.669998 -11.619913 -603.353210
57.189999 -11.621909 -603.031799
57.700001 -11.611704 -602.570923
58.209999 -11.599380 -602.200623
58.720001 -11.593532 -601.789551
59.240002 -11.590299 -601.408386
59.750000 -11.579718 -601.057983
60.259998 -11.573870 -600.646912
60.770000 -11.562418 -600.286560
61.279999 -11.560928 -599.925293
61.810001 -11.559063 -599.674500
62.310001 -11.549728 -599.223572
62.790001 -11.539026 -598.642334
63.270000 -11.521351 -597.981323
63.759998 -11.513263 -597.429932
64.260002 -11.505672 -596.998962
64.760002 -11.503310 -596.627747
65.239998 -11.490864 -596.026550
65.739998 -11.479787 -595.555725
66.230003 -11.473067 -595.134705
66.739998 -11.462487 -594.784302
67.250000 -11.458007 -594.503662
67.769997 -11.459628 -594.292664
68.279999 -11.447801 -594.042786
68.809998 -11.452909 -593.871704
69.330002 -11.448054 -593.701477
69.849998 -11.444071 -593.541199
70.389999 -11.441456 -593.511292
70.940002 -11.440585 -593.501343
71.470001 -11.435356 -593.441589
72.010002 -11.443574 -593.420776
72.559998 -11.440585 -593.501343
73.110001 -11.444071 -593.541199
73.680000 -11.448054 -593.701477
74.239998 -11.445561 -593.902405
74.809998 -11.453031 -594.102539
75.379997 -11.457885 -594.272766
75.949997 -11.458879 -594.513611
76.580002 -11.472196 -595.124756
77.220001 -11.484267 -595.836426
77.809998 -11.488372 -596.227539
78.440002 -11.503432 -596.858643
79.029999 -11.509655 -597.159241
79.610001 -11.509777 -597.390137
80.180000 -11.513760 -597.550354
80.730003 -11.515503 -597.570313
81.300003 -11.510395 -597.741394
81.870003 -11.518736 -597.951477
82.440002 -11.520104 -598.081848
83.019997 -11.529317 -598.301880
83.599998 -11.528567 -598.522766
84.180000 -11.533918 -598.813416
84.779999 -11.541884 -599.133972
85.370003 -11.548979 -599.444519
85.970001 -11.548726 -599.785828
86.570000 -11.561049 -600.156189
87.190002 -11.567769 -600.577209
87.809998 -11.568884 -601.048889
88.419998 -11.576476 -601.479858
89.050003 -11.591911 -602.000488
89.669998 -11.595641 -602.502075
90.269997 -11.602735 -602.812622
90.849998 -11.604975 -602.953003
91.419998 -11.608086 -603.103271
91.989998 -11.614187 -603.173035
92.529999 -11.612444 -603.153076
93.099998 -11.607712 -603.213745
93.660004 -11.612069 -603.263550
94.220001 -11.617299 -603.323303
94.790001 -11.616924 -603.433777
95.349998 -11.611320 -603.484436
95.940002 -11.624890 -603.754272
96.519997 -11.619783 -603.925415
97.110001 -11.625509 -604.105591
97.690002 -11.631235 -604.285767
98.279999 -11.628742 -604.486755
98.860001 -11.632725 -604.647034
99.419998 -11.638826 -604.716736
99.989998 -11.635836 -604.797302
100.550003 -11.641937 -604.867065
101.110001 -11.641937 -604.867065
101.690002 -11.645049 -605.017334
102.250000 -11.640316 -605.078003
102.820000 -11.646417 -605.147705
103.389999 -11.644299 -605.238220
103.959999 -11.643924 -605.348694
104.540001 -11.653511 -605.458252
105.129997 -11.654505 -605.699097
105.709999 -11.654130 -605.809570
106.290001 -11.659856 -605.989746
106.860001 -11.655123 -606.050415
107.400002 -11.658113 -605.969849
107.940002 -11.652012 -605.900085
108.500000 -11.653755 -605.920044
109.050003 -11.651141 -605.890137
109.629997 -11.653380 -606.030457
110.230003 -11.663464 -606.260437
110.870003 -11.666323 -606.752075
111.550003 -11.681383 -607.383179
112.290001 -11.700548 -608.405396
112.930000 -11.707268 -608.826416
113.559998 -11.712244 -609.227478
114.160004 -11.717970 -609.407715
114.750000 -11.725440 -609.607788
115.320000 -11.718092 -609.638550
115.879997 -11.722450 -609.688354
116.489998 -11.726058 -609.959106
117.089996 -11.734399 -610.169128
117.690002 -11.740125 -610.349365
118.290001 -11.739376 -610.570251
118.919998 -11.749085 -610.910706
119.529999 -11.753564 -611.191406
120.139999 -11.755429 -611.442139
120.760002 -11.759037 -611.712891
121.349998 -11.764764 -611.893066
121.949997 -11.761399 -612.084106
122.550003 -11.767997 -612.274231
123.160004 -11.770734 -612.534973
123.760002 -11.777331 -612.725159
124.370003 -11.785672 -612.935242
124.970001 -11.781436 -613.116272
125.529999 -11.783179 -613.136169
126.080002 -11.787040 -613.065613
126.610001 -11.782186 -612.895386
127.120003 -11.773845 -612.685303
127.589996 -11.766254 -612.254333
128.050003 -11.762524 -611.752747
128.419998 -11.747341 -610.890747
128.830002 -11.735271 -610.179138
129.179993 -11.711373 -609.217529
129.580002 -11.694944 -608.456055
129.880005 -11.672668 -607.283569
130.270004 -11.667944 -606.541138
130.630005 -11.649275 -605.639343
130.970001 -11.626249 -604.687744
131.369995 -11.615050 -603.986023
131.729996 -11.597253 -603.094177
132.119995 -11.583439 -602.362610
132.500000 -11.578715 -601.620178
132.919998 -11.567141 -601.028931
133.320007 -11.546852 -600.338074
133.710007 -11.536524 -599.646362
134.130005 -11.526693 -599.075073
134.529999 -11.511633 -598.443970
134.990005 -11.507528 -598.052795
135.429993 -11.495579 -597.572021
135.899994 -11.495832 -597.230713
136.360001 -11.485251 -596.880310
136.839996 -11.481643 -596.609558
137.320007 -11.477163 -596.328918
137.850006 -11.480153 -596.248352
138.380005 -11.475795 -596.198547
138.910004 -11.469694 -596.128784
139.460007 -11.469694 -596.128784
139.990005 -11.476170 -596.088074
140.570007 -11.478410 -596.228394
141.160004 -11.475045 -596.419434
141.759995 -11.484258 -596.639465
142.369995 -11.487866 -596.910217
143.020004 -11.494585 -597.331177
143.660004 -11.506038 -597.691589
144.330002 -11.509768 -598.193176
145.000000 -11.525203 -598.713806
145.660004 -11.523703 -599.155640
146.380005 -11.543122 -599.836487
147.100006 -11.556064 -600.558105
147.830002 -11.568135 -601.269775
148.639999 -11.589043 -602.311951
149.440002 -11.604722 -603.294312
-110.839996 -11.909207 -590.137695
-110.220001 -11.901616 -589.706726
-109.610001 -11.891907 -589.366272
-109.010002 -11.882198 -589.025818
-108.430000 -11.884691 -588.824829
-107.879997 -11.875975 -588.725220
-107.320000 -11.879836 -588.654602
-106.779999 -11.878093 -588.634705
-106.250000 -11.880708 -588.664551
-105.739998 -11.885562 -588.834778
-105.209999 -11.879958 -588.885498
-104.699997 -11.885684 -589.065674
-104.160004 -11.886556 -589.075623
-103.650002 -11.888796 -589.215942
-103.089996 -11.888299 -589.095581
-102.540001 -11.892160 -589.024963
-101.980003 -11.884316 -588.935303
-101.430000 -11.884691 -588.824829
-100.870003 -11.878590 -588.755127
-100.320000 -11.880708 -588.664551
-99.790001 -11.885937 -588.724365
-99.250000 -11.881579 -588.674561
-98.709999 -11.882451 -588.684509
-98.169998 -11.885066 -588.714355
-97.639999 -11.878590 -588.755127
-97.120003 -11.887306 -588.854736
-96.599998 -11.887802 -588.975159
-96.089996 -11.890042 -589.115479
-95.570000 -11.894025 -589.275757
-95.059998 -11.900623 -589.465881
-94.550003 -11.902863 -589.606201
-94.040001 -11.908589 -589.786438
-93.529999 -11.909582 -590.027222
-93.040001 -11.916677 -590.337830
-92.550003 -11.923771 -590.648376
-92.070000 -11.926133 -591.019592
-91.580002 -11.932356 -591.320190
-91.099998 -11.946422 -591.710449
-90.629997 -11.950153 -592.212036
-90.169998 -11.963845 -592.712708
-89.680000 -11.966206 -593.083923
-89.220001 -11.981641 -593.604553
-88.769997 -11.986740 -594.236511
-88.320000 -12.000057 -594.847717
-87.870003 -12.015989 -595.488770
-87.459999 -12.032043 -596.360657
-87.019997 -12.044114 -597.072327
-86.589996 -12.057553 -597.914368
-86.169998 -12.082697 -598.775452
-85.790001 -12.099744 -599.888184
-85.370003 -12.118413 -600.789978
-84.970001 -12.138450 -601.822205
-84.570000 -12.153754 -602.914978
-84.169998 -12.179020 -604.006958
-83.779999 -12.197810 -605.139648
-83.379997 -12.227434 -606.281372
-82.959999 -12.240498 -607.233887
-82.489998 -12.257302 -607.884888
-81.970001 -12.258295 -608.125732
-81.430000 -12.257921 -608.236145
-80.870003 -12.257049 -608.226196
-80.309998 -12.262653 -608.175537
-79.779999 -12.269251 -608.365662
-79.250000 -12.266758 -608.566650
-78.730003 -12.275596 -608.897156
-78.209999 -12.282690 -609.207703
-77.699997 -12.290656 -609.528259
-77.169998 -12.293393 -609.789001
-76.660004 -12.303102 -610.129456
-76.150002 -12.305463 -610.500671
-75.629997 -12.316044 -610.851074
-75.120003 -12.317534 -611.212280
-74.589996 -12.322014 -611.492981
-74.089996 -12.330477 -611.933899
-73.570000 -12.339314 -612.264404
-73.050003 -12.350766 -612.624756
-72.519997 -12.355246 -612.905457
-72.010002 -12.357608 -613.276672
-71.480003 -12.364702 -613.587219
-70.949997 -12.375658 -613.827209
-70.419998 -12.381009 -614.117798
-69.889999 -12.386360 -614.408447
-69.370003 -12.395198 -614.738953
-68.830002 -12.393576 -614.949890
-68.290001 -12.401917 -615.159973
-67.750000 -12.403782 -615.410767
-67.220001 -12.407390 -615.681458
-66.680000 -12.418346 -615.921448
-66.139999 -12.414110 -616.102478
-65.599998 -12.421579 -616.302612
-65.050003 -12.429048 -616.502686
-64.510002 -12.428299 -616.723633
-63.959999 -12.427924 -616.834045
-63.410000 -12.434522 -617.024231
-62.869999 -12.437633 -617.174500
-62.320000 -12.440744 -617.324829
-61.750000 -12.442488 -617.344727
-61.189999 -12.439873 -617.314880
-60.590000 -12.440126 -616.973572
-59.959999 -12.428552 -616.382324
-59.349998 -12.415731 -615.891541
-58.040001 -12.271744 -608.164673
-57.330002 -12.239261 -606.531311
-56.599998 -12.205410 -604.767578
-55.930000 -12.178776 -603.545227
-55.279999 -12.160857 -602.422485
-54.639999 -12.143060 -601.530640
-54.029999 -12.126257 -600.879639
-53.450001 -12.123023 -600.498474
-52.880001 -12.121158 -600.247681
-52.310001 -12.112818 -600.037598
-51.750000 -12.108835 -599.877380
-51.200001 -12.112321 -599.917236
-50.650002 -12.111449 -599.907227
-50.099998 -12.113192 -599.927185
-49.570000 -12.118047 -600.097412
-49.040001 -12.115554 -600.298401
-48.500000 -12.117794 -600.438721
-47.959999 -12.119162 -600.569092
-47.419998 -12.123145 -600.729370
-46.880001 -12.131861 -600.828979
-46.340000 -12.132358 -600.949402
-45.799999 -12.131111 -601.049866
-45.259998 -12.137212 -601.119629
-44.700001 -12.131983 -601.059814
-44.139999 -12.133229 -600.959351
-43.590000 -12.126257 -600.879639
-43.029999 -12.132236 -600.718506
-42.470001 -12.121777 -600.598999
-41.919998 -12.127381 -600.548279
-41.360001 -12.127756 -600.437866
-40.799999 -12.120784 -600.358154
-40.250000 -12.122030 -600.257629
-39.700001 -12.117672 -600.207825
-39.139999 -12.121533 -600.137268
-38.590000 -12.113689 -600.047607
-38.040001 -12.117175 -600.087402
-37.500000 -12.115057 -600.177979
-36.950001 -12.119415 -600.227783
-36.410000 -12.124270 -600.398010
-35.880001 -12.131739 -600.598083
-35.330002 -12.124392 -600.628845
-34.779999 -12.132236 -600.718506
-34.230000 -12.131739 -600.598083
-33.669998 -12.121655 -600.368103
-33.099998 -12.114561 -600.057556
-32.529999 -12.105226 -599.606628
-31.950001 -12.097635 -599.175659
-31.389999 -12.096145 -598.814392
-30.820000 -12.082078 -598.424133
-30.250000 -12.084074 -598.102783
-29.690001 -12.067393 -597.682617
-29.120001 -12.065031 -597.311401
-28.549999 -12.055697 -596.860535
-27.990000 -12.045988 -596.520081
-27.430000 -12.048855 -596.208618
-26.870001 -12.033542 -595.918884
-26.320000 -12.033420 -595.687988
-25.760000 -12.027694 -595.507813
-25.209999 -12.031930 -595.326721
-24.660000 -12.024086 -595.237061
-24.120001 -12.028818 -595.176453
-23.570000 -12.026204 -595.146545
-23.030001 -12.022718 -595.106689
-22.480000 -12.026579 -595.036133
-21.930000 -12.017863 -594.936462
-21.370001 -12.014630 -594.555298
-20.799999 -12.001687 -593.833679
-20.230000 -11.980029 -593.012451
-19.670000 -11.968455 -592.421204
-19.120001 -11.967958 -592.300781
-18.580000 -11.962232 -592.120605
-18.030001 -11.963479 -592.020142
-17.490000 -11.965597 -591.929626
-16.950001 -11.959121 -591.970337
-16.400000 -11.956384 -591.709595
-15.850000 -11.951033 -591.418945
-15.300000 -11.943939 -591.108337
-14.750000 -11.942945 -590.867554
-14.210000 -11.945063 -590.776978
-13.670000 -11.941577 -590.737183
-13.130000 -11.937219 -590.687317
-12.590000 -11.941577 -590.737183
-12.050000 -11.938587 -590.817749
-11.520000 -11.942570 -590.977966
-10.980000 -11.945682 -591.128296
-10.440000 -11.947050 -591.258667
-9.900000 -11.958877 -591.508606
-9.360000 -11.959374 -591.629028
-8.820000 -11.958877 -591.508606
-8.280000 -11.959749 -591.518555
-7.740000 -11.950162 -591.408936
-7.200000 -11.954519 -591.458801
-6.660000 -11.957134 -591.488647
-6.120000 -11.955888 -591.589172
-5.580000 -11.961614 -591.769348
-5.040000 -11.964350 -592.030090
-4.500000 -11.974059 -592.370544
-3.960000 -11.976421 -592.741760
-3.420000 -11.985381 -593.303101
-2.880000 -12.000441 -593.934204
-2.350000 -12.018735 -594.946472
24.209999 -12.227190 -605.819641
24.730000 -12.208522 -604.917847
25.270000 -12.201427 -604.607300
25.820000 -12.206657 -604.667053
26.379999 -12.207154 -604.787476
26.940001 -12.217237 -605.017456
27.510000 -12.213498 -605.318970
28.080000 -12.226197 -605.578857
28.639999 -12.221961 -605.759888
29.200001 -12.231548 -605.869446
29.760000 -12.235531 -606.029724
30.320000 -12.239514 -606.190002
30.889999 -12.243122 -606.460693
31.459999 -12.248473 -606.751343
32.040001 -12.255193 -607.172363
32.619999 -12.257555 -607.543579
33.200001 -12.272990 -608.064209
33.779999 -12.282324 -608.515137
34.360001 -12.285558 -608.896301
34.939999 -12.297010 -609.256653
35.509998 -12.294142 -609.568115
36.080002 -12.302483 -609.778137
36.660000 -12.308706 -610.078735
37.230000 -12.315303 -610.268921
37.799999 -12.319286 -610.429199
38.380001 -12.323766 -610.709839
38.950001 -12.329117 -611.000488
39.529999 -12.332726 -611.271179
40.099998 -12.334965 -611.411560
40.660000 -12.329361 -611.462219
41.230000 -12.335462 -611.531982
41.790001 -12.335959 -611.652344
42.360001 -12.343803 -611.742004
42.930000 -12.343428 -611.852478
43.500000 -12.346539 -612.002808
44.070000 -12.348779 -612.143127
44.639999 -12.351891 -612.293396
45.209999 -12.349398 -612.494385
45.790001 -12.350766 -612.624756
46.360001 -12.359979 -612.844788
46.939999 -12.368319 -613.054871
47.509998 -12.367073 -613.155396
48.060001 -12.363962 -613.005066
48.599998 -12.353006 -612.765137
49.110001 -12.347036 -612.123169
49.619999 -12.333719 -611.512024
50.090000 -12.307581 -610.410095
50.570000 -12.290656 -609.528259
51.049999 -12.275474 -608.666260
51.549999 -12.262531 -607.944641
52.049999 -12.253075 -607.262878
52.549999 -12.242373 -606.681641
53.060001 -12.226937 -606.160950
53.580002 -12.225447 -605.799744
54.090000 -12.212627 -605.308960
54.599998 -12.200678 -604.828186
55.119999 -12.197444 -604.447021
55.639999 -12.192468 -604.045959
56.139999 -12.178776 -603.545227
56.660000 -12.176414 -603.174011
57.180000 -12.165834 -602.823608
57.689999 -12.153510 -602.453247
58.200001 -12.144176 -602.002380
58.720001 -12.145300 -601.671021
59.230000 -12.129490 -601.260803
59.740002 -12.128871 -600.909546
60.240002 -12.118666 -600.448669
60.759998 -12.111571 -600.138123
61.279999 -12.103605 -599.817566
61.799999 -12.097382 -599.516968
62.290001 -12.091038 -598.985535
62.779999 -12.076474 -598.474854
63.250000 -12.065275 -597.773132
63.740002 -12.058930 -597.241699
64.250000 -12.048349 -596.891296
64.739998 -12.041133 -596.349854
65.230003 -12.030056 -595.879028
65.739998 -12.017732 -595.508667
66.220001 -12.007901 -594.937378
66.720001 -12.007282 -594.586060
67.230003 -12.001931 -594.295410
67.760002 -11.998820 -594.145142
68.269997 -11.986993 -593.895203
68.790001 -11.985128 -593.644409
69.309998 -11.981145 -593.484131
69.849998 -11.978530 -593.454285
70.379997 -11.979776 -593.353760
70.919998 -11.977162 -593.323914
71.449997 -11.981023 -593.253296
72.000000 -11.973676 -593.284058
72.550003 -11.976290 -593.313965
73.099998 -11.980648 -593.363770
73.660004 -11.977284 -593.554749
74.230003 -11.984753 -593.754883
74.790001 -11.986993 -593.895203
75.360001 -11.994462 -594.095337
75.940002 -11.999813 -594.385986
76.559998 -12.010516 -594.967224
77.190002 -12.017357 -595.619141
77.790001 -12.028809 -595.979492
78.419998 -12.043870 -596.610596
79.010002 -12.047103 -596.991760
79.580002 -12.052829 -597.171936
80.160004 -12.050336 -597.372925
80.720001 -12.059924 -597.482483
81.290001 -12.061292 -597.612915
81.849998 -12.062660 -597.743286
82.430000 -12.060167 -597.944275
83.000000 -12.064150 -598.104492
83.589996 -12.071245 -598.415100
84.169998 -12.080457 -598.635132
84.760002 -12.079333 -598.966492
85.360001 -12.091656 -599.336792
85.959999 -12.099622 -599.657349
86.570000 -12.103727 -600.048462
87.150002 -12.105592 -600.299255
87.779999 -12.122771 -600.839783
88.400002 -12.123014 -601.301514
89.019997 -12.132349 -601.752441
89.629997 -12.139068 -602.173462
90.230003 -12.147034 -602.493958
90.809998 -12.151017 -602.654236
91.370003 -12.148899 -602.744751
91.940002 -12.154129 -602.804565
92.500000 -12.151139 -602.885132
93.059998 -12.156368 -602.944885
93.620003 -12.158111 -602.964844
94.169998 -12.157240 -602.954834
94.730003 -12.154250 -603.035400
95.300003 -12.162094 -603.125061
95.870003 -12.163463 -603.255432
96.449997 -12.170060 -603.445618
97.050003 -12.172797 -603.706360
97.639999 -12.171176 -603.917297
98.230003 -12.182131 -604.157288
98.820000 -12.179639 -604.358215
99.400002 -12.183621 -604.518494
99.949997 -12.185365 -604.538452
100.519997 -12.189722 -604.588257
101.080002 -12.182375 -604.619019
101.660004 -12.189844 -604.819092
102.220001 -12.190716 -604.829041
102.779999 -12.195945 -604.888855
103.360001 -12.198185 -605.029175
103.930000 -12.196939 -605.129639
104.500000 -12.193078 -605.200256
105.080002 -12.197932 -605.370483
105.669998 -12.204530 -605.560669
106.250000 -12.208513 -605.720886
106.820000 -12.205523 -605.801453
107.400002 -12.205148 -605.911926
107.940002 -12.209881 -605.851257
108.470001 -12.205898 -605.691040
109.029999 -12.209384 -605.730896
109.580002 -12.209384 -605.730896
110.190002 -12.212993 -606.001587
110.820000 -12.219712 -606.422607
111.510002 -12.231783 -607.134277
112.220001 -12.243479 -607.956360
112.900002 -12.261154 -608.617371
113.519997 -12.270863 -608.957764
114.120003 -12.270113 -609.178711
114.699997 -12.268867 -609.279175
115.290001 -12.271978 -609.429504
115.860001 -12.278079 -609.499207
116.440002 -12.281191 -609.649536
117.040001 -12.286917 -609.829712
117.639999 -12.287910 -610.070557
118.260002 -12.292390 -610.351196
118.860001 -12.299859 -610.551331
119.449997 -12.294752 -610.722412
120.089996 -12.309690 -611.122620
120.699997 -12.310684 -611.363464
121.309998 -12.312549 -611.614258
121.910004 -12.320018 -611.814392
122.500000 -12.324872 -611.984619
123.110001 -12.323251 -612.195557
123.730003 -12.331217 -612.516052
124.309998 -12.339933 -612.615662
124.919998 -12.339183 -612.836609
125.480003 -12.340055 -612.846558
126.029999 -12.335697 -612.796753
126.589996 -12.342173 -612.756042
127.089996 -12.327731 -612.476196
127.570000 -12.323626 -612.085083
128.029999 -12.314292 -611.634216
128.410004 -12.299981 -610.782227
128.830002 -12.282306 -610.121216
129.190002 -12.270985 -609.188660
129.550003 -12.254060 -608.306763
129.899994 -12.230162 -607.345215
130.270004 -12.216723 -606.503174
130.639999 -12.201540 -605.641235
131.020004 -12.183369 -604.859802
131.389999 -12.168186 -603.997864
131.770004 -12.150886 -603.226440
132.149994 -12.142676 -602.444153
132.520004 -12.123633 -601.652832
132.919998 -12.106830 -601.001831
133.330002 -12.100860 -600.359863
133.729996 -12.082313 -599.688965
134.169998 -12.080326 -599.207275
134.550003 -12.065641 -598.465759
135.000000 -12.058921 -598.044739
135.449997 -12.041368 -597.614624
135.889999 -12.041996 -597.162842
136.350006 -12.030544 -596.802490
136.820007 -12.019963 -596.452087
137.320007 -12.024199 -596.270996
137.839996 -12.014612 -596.161438
138.360001 -12.015858 -596.060913
138.899994 -12.012372 -596.021118
139.399994 -12.015736 -595.830078
139.960007 -12.013618 -595.920593
140.520004 -12.017976 -595.970398
141.110001 -12.013740 -596.151489
141.729996 -12.019091 -596.442139
142.330002 -12.028304 -596.662170
142.970001 -12.034152 -597.073181
143.580002 -12.044236 -597.303223
144.220001 -12.050955 -597.724182
144.889999 -12.054685 -598.225769
145.580002 -12.065388 -598.807068
146.240005 -12.072979 -599.238037
147.020004 -12.093390 -600.159790
147.710007 -12.103221 -600.731079
148.509995 -12.121515 -601.743347
-110.860001 -12.448521 -590.221008
-110.239998 -12.440058 -589.780090
-109.639999 -12.432964 -589.469482
-109.029999 -12.421512 -589.109131
-108.459999 -12.426619 -588.938049
-107.900002 -12.415289 -588.808533
-107.349998 -12.421764 -588.767822
-106.820000 -12.415289 -588.808533
-106.290001 -12.417903 -588.838440
-105.760002 -12.421390 -588.878235
-105.230003 -12.419272 -588.968811
-104.730003 -12.426741 -589.168884
-104.190002 -12.427612 -589.178894
-103.669998 -12.433713 -589.248596
-103.120003 -12.431970 -589.228699
-102.570000 -12.423255 -589.129028
-102.010002 -12.423629 -589.018616
-101.449997 -12.426619 -588.938049
-100.900002 -12.417032 -588.828430
-100.360001 -12.418775 -588.848389
-99.809998 -12.421764 -588.767822
-99.269997 -12.422636 -588.777771
-98.730003 -12.424379 -588.797668
-98.199997 -12.417903 -588.838440
-97.669998 -12.423133 -588.898193
-97.150002 -12.429234 -588.967896
-96.639999 -12.425869 -589.158936
-96.120003 -12.428981 -589.309265
-95.589996 -12.433339 -589.359070
-95.089996 -12.442551 -589.579102
-94.580002 -12.438315 -589.760132
-94.059998 -12.441426 -589.910461
-93.580002 -12.449392 -590.230957
-93.080002 -12.461219 -590.480896
-92.589996 -12.462710 -590.842163
-92.099998 -12.471547 -591.172607
-91.610001 -12.478641 -591.483215
-91.150002 -12.492333 -591.983887
-90.669998 -12.500796 -592.424866
-90.190002 -12.502286 -592.786072
-89.720001 -12.516850 -593.296753
-89.279999 -12.531910 -593.927856
-88.820000 -12.540870 -594.489197
-88.360001 -12.552444 -595.080444
-87.910004 -12.566633 -595.701599
-87.489998 -12.576586 -596.503784
-87.050003 -12.592143 -597.255249
-86.639999 -12.614297 -598.196899
-86.239998 -12.638195 -599.158508
-85.820000 -12.650388 -600.101013
-85.400002 -12.667313 -600.982910
-85.019997 -12.690462 -602.165344
-84.610001 -12.714359 -603.126953
-84.239998 -12.735390 -604.399963
-83.830002 -12.765388 -605.431274
-83.430000 -12.781564 -606.534058
-82.980003 -12.800607 -607.325439
-82.510002 -12.813925 -607.936584
-81.980003 -12.810560 -608.127625
-81.430000 -12.814918 -608.177429
-80.870003 -12.814047 -608.167419
-80.309998 -12.814918 -608.177429
-79.769997 -12.816286 -608.307800
-79.260002 -12.825124 -608.638245
-78.730003 -12.830850 -608.818481
-78.209999 -12.839687 -609.148926
-77.690002 -12.844167 -609.429626
-77.180000 -12.853876 -609.770081
-76.660004 -12.854495 -610.121338
-76.150002 -12.861589 -610.431946
-75.620003 -12.867812 -610.732544
-75.110001 -12.881879 -611.122803
-74.599998 -12.885984 -611.513916
-74.080002 -12.894821 -611.844421
-73.559998 -12.902787 -612.164917
-73.040001 -12.904278 -612.526184
-72.519997 -12.909629 -612.816833
-72.000000 -12.920209 -613.167236
-71.480003 -12.927304 -613.477783
-70.949997 -12.935270 -613.798279
-70.419998 -12.935392 -614.029175
-69.889999 -12.941615 -614.329773
-69.360001 -12.946094 -614.610474
-68.830002 -12.958793 -614.870361
-68.290001 -12.958043 -615.091248
-67.750000 -12.962523 -615.371948
-67.220001 -12.972607 -615.601929
-66.669998 -12.974847 -615.742249
-66.129997 -12.976712 -615.993042
-65.599998 -12.980320 -616.263733
-65.050003 -12.984303 -616.424011
-64.510002 -12.990029 -616.604187
-63.959999 -12.994012 -616.764465
-63.410000 -12.998866 -616.934692
-62.860001 -13.000235 -617.065063
-62.310001 -13.005089 -617.235291
-61.740002 -13.003346 -617.215393
-61.169998 -13.004592 -617.114868
-60.570000 -12.992269 -616.744568
-59.930000 -12.980198 -616.032898
-59.240002 -12.957424 -614.739929
-58.020000 -12.813925 -607.936584
-57.299999 -12.780945 -606.182800
-56.580002 -12.748838 -604.438965
-55.900002 -12.717846 -603.166809
-55.250000 -12.702541 -602.073975
-54.599998 -12.683376 -601.051758
-54.009998 -12.672299 -600.580933
-53.430000 -12.665204 -600.270386
-52.849998 -12.660228 -599.869263
-52.279999 -12.652759 -599.669189
-51.730000 -12.649273 -599.629333
-51.180000 -12.652759 -599.669189
-50.639999 -12.653630 -599.679138
-50.090000 -12.653630 -599.679138
-49.560001 -12.661100 -599.879211
-49.020000 -12.657735 -600.070251
-48.480000 -12.666451 -600.169861
-47.950001 -12.663958 -600.370850
-47.410000 -12.674417 -600.490417
-46.869999 -12.671052 -600.681396
-46.330002 -12.673667 -600.711304
-45.779999 -12.676282 -600.741211
-45.240002 -12.682383 -600.810913
-44.680000 -12.676282 -600.741211
-44.119999 -12.676657 -600.630737
-43.570000 -12.672299 -600.580933
-43.009998 -12.671802 -600.460510
-42.459999 -12.664830 -600.380798
-41.900002 -12.671680 -600.229675
-41.340000 -12.665579 -600.159912
-40.790001 -12.665954 -600.049438
-40.240002 -12.663339 -600.019592
-39.680000 -12.661971 -599.889221
-39.130001 -12.660228 -599.869263
-38.580002 -12.656742 -599.829407
-38.029999 -12.666329 -599.939026
-37.490002 -12.660725 -599.989685
-36.939999 -12.667697 -600.069397
-36.410000 -12.668691 -600.310242
-35.869999 -12.666573 -600.400757
-35.320000 -12.672674 -600.470459
-34.770000 -12.667444 -600.410706
-34.209999 -12.672552 -600.239624
-33.639999 -12.661100 -599.879211
-33.070000 -12.653508 -599.448242
-32.500000 -12.642056 -599.087891
-31.940001 -12.636705 -598.797241
-31.360001 -12.629114 -598.366272
-30.799999 -12.625009 -597.975159
-30.230000 -12.615300 -597.634705
-29.660000 -12.607709 -597.203735
-29.100000 -12.596257 -596.843323
-28.540001 -12.593895 -596.472107
-27.969999 -12.582443 -596.111755
-27.420000 -12.578834 -595.841064
-26.860001 -12.581327 -595.640076
-26.309999 -12.569500 -595.390137
-25.760000 -12.570747 -595.289673
-25.209999 -12.565517 -595.229858
-24.660000 -12.569378 -595.159241
-24.120001 -12.565892 -595.119446
-23.570000 -12.564149 -595.099487
-23.030001 -12.564149 -595.099487
-22.480000 -12.565395 -594.999023
-21.930000 -12.560166 -594.939209
-21.379999 -12.555686 -594.658569
-20.820000 -12.548967 -594.237549
-20.250000 -12.539510 -593.555786
-19.680000 -12.523953 -592.804260
-19.129999 -12.510383 -592.534424
-18.580000 -12.507647 -592.273682
-18.040001 -12.507150 -592.153259
-17.490000 -12.507525 -592.042786
-16.950001 -12.506653 -592.032837
-16.410000 -12.502670 -591.872559
-15.860000 -12.498191 -591.591919
-15.310000 -12.486738 -591.231506
-14.760000 -12.484002 -590.970764
-14.220000 -12.486991 -590.890198
-13.680000 -12.483505 -590.850342
-13.140000 -12.485248 -590.870300
-12.600000 -12.486120 -590.880249
-12.060000 -12.482259 -590.950867
-11.520000 -12.484873 -590.980713
-10.980000 -12.491471 -591.170898
-10.440000 -12.487235 -591.351929
-9.910000 -12.496447 -591.571960
-9.370000 -12.498687 -591.712341
-8.820000 -12.494330 -591.662476
-8.280000 -12.499934 -591.611816
-7.740000 -12.498191 -591.591919
-7.200000 -12.492090 -591.522156
-6.660000 -12.499934 -591.611816
-6.120000 -12.499559 -591.722290
-5.580000 -12.506156 -591.912415
-5.040000 -12.511011 -592.082642
-4.500000 -12.508143 -592.394104
-3.960000 -12.518724 -592.744507
-3.430000 -12.534656 -593.385559
-2.890000 -12.544984 -594.077271
-2.350000 -12.570625 -595.058777
24.200001 -12.773232 -605.520935
24.709999 -12.761040 -604.578430
25.260000 -12.750956 -604.348389
25.809999 -12.755314 -604.398193
26.379999 -12.759793 -604.678894
26.940001 -12.761162 -604.809265
27.500000 -12.769502 -605.019348
28.059999 -12.769127 -605.129822
28.620001 -12.770121 -605.370605
29.180000 -12.778837 -605.470276
29.750000 -12.779830 -605.711060
30.309999 -12.781695 -605.961853
30.879999 -12.785303 -606.232605
31.459999 -12.796755 -606.592957
32.029999 -12.805218 -607.033875
32.619999 -12.816295 -607.504700
33.189999 -12.819529 -607.885864
33.779999 -12.831478 -608.366699
34.360001 -12.836454 -608.767761
34.930000 -12.848281 -609.017700
35.490002 -12.844045 -609.198730
36.060001 -12.852386 -609.408813
36.630001 -12.858112 -609.588989
37.209999 -12.859977 -609.839783
37.779999 -12.867072 -610.150391
38.360001 -12.869808 -610.411133
38.939999 -12.877774 -610.731628
39.509998 -12.883500 -610.911804
40.080002 -12.883125 -611.022278
40.639999 -12.885740 -611.052185
41.200001 -12.890098 -611.101990
41.759998 -12.887108 -611.182556
42.330002 -12.885862 -611.283020
42.900002 -12.894578 -611.382629
43.470001 -12.896443 -611.633423
44.049999 -12.899554 -611.783752
44.619999 -12.907023 -611.983887
45.189999 -12.910135 -612.134155
45.759998 -12.905027 -612.305237
46.340000 -12.912496 -612.505371
46.919998 -12.912618 -612.736267
47.480000 -12.915233 -612.766113
48.029999 -12.916479 -612.665649
48.570000 -12.907642 -612.335144
49.090000 -12.900426 -611.793701
49.570000 -12.885243 -610.931763
50.060001 -12.857484 -610.040771
50.549999 -12.845788 -609.218689
51.029999 -12.824505 -608.286987
51.529999 -12.817664 -607.635132
52.029999 -12.798742 -607.074646
52.540001 -12.791526 -606.533203
53.049999 -12.785181 -606.001709
53.570000 -12.772858 -605.631409
54.080002 -12.759166 -605.130676
54.590000 -12.751574 -604.699707
55.110001 -12.742240 -604.248779
55.619999 -12.736392 -603.837708
56.130001 -12.727058 -603.386841
56.650002 -12.720835 -603.086243
57.160000 -12.711501 -602.635315
57.689999 -12.707893 -602.364624
58.189999 -12.692458 -601.843994
58.709999 -12.686235 -601.543396
59.220001 -12.678644 -601.112427
59.740002 -12.673292 -600.821777
60.240002 -12.661343 -600.340942
60.759998 -12.655992 -600.050354
61.270000 -12.656245 -599.708984
61.790001 -12.647407 -599.378540
62.290001 -12.637202 -598.917664
62.779999 -12.623510 -598.416931
63.240002 -12.606209 -597.645508
63.750000 -12.600361 -597.234436
64.239998 -12.588413 -596.753662
64.739998 -12.581693 -596.332642
65.230003 -12.574477 -595.791199
65.730003 -12.562153 -595.420898
66.209999 -12.550579 -594.829651
66.709999 -12.548217 -594.458435
67.220001 -12.533775 -594.178650
67.750000 -12.532407 -594.048279
68.260002 -12.527056 -593.757629
68.779999 -12.521330 -593.577454
69.309998 -12.519090 -593.437073
69.849998 -12.526437 -593.406311
70.370003 -12.524197 -593.265991
70.900002 -12.514610 -593.156433
71.449997 -12.515482 -593.166382
71.989998 -12.516353 -593.176331
72.540001 -12.518096 -593.196289
73.099998 -12.518593 -593.316711
73.650002 -12.516475 -593.407227
74.220001 -12.523944 -593.607300
74.779999 -12.527927 -593.767578
75.349998 -12.533653 -593.947754
75.930000 -12.539876 -594.248352
76.529999 -12.549211 -594.699280
77.180000 -12.563896 -595.440796
77.769997 -12.566258 -595.812012
78.389999 -12.581693 -596.332642
78.989998 -12.591027 -596.783569
79.580002 -12.589903 -597.114929
80.150002 -12.593014 -597.265198
80.720001 -12.598740 -597.445435
81.279999 -12.605713 -597.525085
81.849998 -12.602348 -597.716125
82.419998 -12.606331 -597.876404
83.000000 -12.615544 -598.096436
83.580002 -12.615666 -598.327271
84.169998 -12.618402 -598.588013
84.760002 -12.627240 -598.918518
85.349998 -12.630848 -599.189270
85.949997 -12.641429 -599.539673
86.550003 -12.651138 -599.880127
87.150002 -12.650013 -600.211487
87.769997 -12.663705 -600.712158
88.389999 -12.676526 -601.202942
89.000000 -12.681502 -601.604004
89.599998 -12.690340 -601.934509
90.190002 -12.687847 -602.135498
90.760002 -12.690958 -602.285767
91.320000 -12.697931 -602.365479
91.900002 -12.700171 -602.505798
92.459999 -12.695438 -602.566467
93.019997 -12.702410 -602.646179
93.589996 -12.699421 -602.726746
94.150002 -12.703779 -602.776550
94.709999 -12.701661 -602.867065
95.269997 -12.702532 -602.877014
95.830002 -12.709505 -602.956726
96.400002 -12.706515 -603.037292
96.989998 -12.717471 -603.277222
97.580002 -12.719336 -603.528015
98.190002 -12.729045 -603.868469
98.779999 -12.727424 -604.079407
99.360001 -12.733150 -604.259644
99.930000 -12.731032 -604.350159
100.489998 -12.736261 -604.409912
101.059998 -12.734143 -604.500427
101.610001 -12.733272 -604.490479
102.180000 -12.741987 -604.590088
102.750000 -12.738998 -604.670654
103.320000 -12.736880 -604.761230
103.889999 -12.746467 -604.870789
104.459999 -12.741734 -604.931458
105.040001 -12.747460 -605.111633
105.629997 -12.750572 -605.261902
106.220001 -12.758041 -605.462036
106.790001 -12.755923 -605.552551
107.349998 -12.762024 -605.622314
107.910004 -12.762024 -605.622314
108.470001 -12.753805 -605.643066
109.010002 -12.759409 -605.592407
109.589996 -12.759906 -605.712830
110.169998 -12.763889 -605.873108
110.800003 -12.767994 -606.264221
111.510002 -12.788780 -607.075500
112.209999 -12.797862 -607.867737
112.870003 -12.814168 -608.398315
113.489998 -12.814787 -608.749573
114.080002 -12.820513 -608.929810
114.669998 -12.824496 -609.090027
115.250000 -12.824121 -609.200500
115.820000 -12.831094 -609.280212
116.410004 -12.833334 -609.420532
117.000000 -12.839060 -609.600708
117.599998 -12.836567 -609.801697
118.220001 -12.845405 -610.132202
118.809998 -12.848516 -610.282471
119.430000 -12.852124 -610.553223
120.040001 -12.854861 -610.813965
120.650002 -12.869302 -611.093750
121.260002 -12.868553 -611.314697
121.879997 -12.877390 -611.645142
122.480003 -12.882245 -611.815369
123.080002 -12.878880 -612.006409
123.669998 -12.881992 -612.156677
124.279999 -12.894690 -612.416565
124.860001 -12.893444 -612.517090
125.449997 -12.893069 -612.627502
126.010002 -12.894812 -612.647461
126.559998 -12.889583 -612.587708
127.080002 -12.892076 -612.386719
127.550003 -12.884485 -611.955750
128.039993 -12.874776 -611.615295
128.440002 -12.861833 -610.893677
128.850006 -12.841543 -610.202820
129.179993 -12.827111 -609.119934
129.559998 -12.806324 -608.308655
129.910004 -12.783298 -607.357056
130.339996 -12.779943 -606.744995
130.679993 -12.754302 -605.763489
131.050003 -12.743477 -604.951355
131.410004 -12.724809 -604.049561
131.800003 -12.710123 -603.307983
132.169998 -12.690209 -602.506714
132.559998 -12.678138 -601.795044
132.949997 -12.662581 -601.043518
133.339996 -12.651381 -600.341858
133.759995 -12.632460 -599.781372
134.149994 -12.623004 -599.099609
134.589996 -12.608440 -598.588928
135.020004 -12.603839 -598.077393
135.460007 -12.594504 -597.626465
135.899994 -12.584299 -597.165588
136.369995 -12.573718 -596.815186
136.830002 -12.572228 -596.453918
137.309998 -12.558658 -596.184082
137.839996 -12.563390 -596.123474
138.350006 -12.559407 -595.963196
138.860001 -12.555424 -595.802917
139.369995 -12.554056 -595.672546
139.940002 -12.551938 -595.763062
140.500000 -12.558911 -595.842773
141.080002 -12.562022 -595.993103
141.669998 -12.558658 -596.184082
142.300003 -12.565752 -596.494690
142.899994 -12.577579 -596.744568
143.520004 -12.581187 -597.015320
144.139999 -12.587410 -597.315918
144.800003 -12.597616 -597.776794
145.449997 -12.606950 -598.227661
146.169998 -12.618149 -598.929382
146.860001 -12.627109 -599.490723
147.580002 -12.647398 -600.181580
148.320007 -12.662956 -600.933105
149.100006 -12.680752 -601.824951
-110.269997 -12.983729 -589.913208
-109.669998 -12.974020 -589.572754
-109.050003 -12.965558 -589.131775
-108.480003 -12.961575 -588.971558
-107.930000 -12.958960 -588.941650
-107.370003 -12.959335 -588.831177
-106.830002 -12.958463 -588.821228
-106.320000 -12.960703 -588.961548
-105.779999 -12.963318 -588.991455
-105.250000 -12.966804 -589.031311
-104.739998 -12.961697 -589.202393
-104.209999 -12.963440 -589.222351
-103.699997 -12.970909 -589.422424
-103.169998 -12.972652 -589.442383
-102.610001 -12.972155 -589.321960
-102.050003 -12.963440 -589.222351
-101.500000 -12.968172 -589.161682
-100.949997 -12.961200 -589.081970
-100.400002 -12.967676 -589.041260
-99.849998 -12.961575 -588.971558
-99.309998 -12.961575 -588.971558
-98.769997 -12.960703 -588.961548
-98.239998 -12.967676 -589.041260
-97.720001 -12.962943 -589.101929
-97.190002 -12.968172 -589.161682
-96.669998 -12.969541 -589.292053
-96.129997 -12.972155 -589.321960
-95.620003 -12.977010 -589.492188
-95.120003 -12.977132 -589.723022
-94.610001 -12.981115 -589.883301
-94.099998 -12.988584 -590.083435
-93.599998 -12.991320 -590.344177
-93.120003 -13.005387 -590.734436
-92.620003 -13.008124 -590.995178
-92.139999 -13.016961 -591.325684
-91.639999 -13.023184 -591.626282
-91.180000 -13.026043 -592.117920
-90.699997 -13.044467 -592.557983
-90.239998 -13.050812 -593.089417
-89.769997 -13.061890 -593.560242
-89.309998 -13.070849 -594.121643
-88.849998 -13.085413 -594.632263
-88.400002 -13.102216 -595.283325
-87.959999 -13.110801 -595.955078
-87.529999 -13.131587 -596.766357
-87.110001 -13.143283 -597.588501
-86.690002 -13.168427 -598.449585
-86.269997 -13.183610 -599.311523
-85.879997 -13.211490 -600.433350
-85.440002 -13.227919 -601.194824
-85.050003 -13.247581 -602.337463
-84.650002 -13.268489 -603.379639
-84.269997 -13.292509 -604.572083
-83.860001 -13.313417 -605.614197
-83.459999 -13.343041 -606.755981
-83.010002 -13.360341 -607.527405
-82.510002 -13.360960 -607.878662
-81.970001 -13.366686 -608.058838
-81.419998 -13.366686 -608.058838
-80.860001 -13.373162 -608.018127
-80.309998 -13.369301 -608.088745
-79.769997 -13.374155 -608.258972
-79.260002 -13.379507 -608.549622
-78.730003 -13.381372 -608.800415
-78.209999 -13.387595 -609.101013
-77.690002 -13.402908 -609.390747
-77.169998 -13.408259 -609.681396
-76.650002 -13.412739 -609.962097
-76.150002 -13.424688 -610.442871
-75.629997 -13.430039 -610.733521
-75.110001 -13.437133 -611.044067
-74.599998 -13.441238 -611.435242
-74.080002 -13.452690 -611.795593
-73.559998 -13.453309 -612.146851
-73.040001 -13.458660 -612.437500
-72.519997 -13.466626 -612.758057
-71.989998 -13.481940 -613.047791
-71.470001 -13.480815 -613.379150
-70.940002 -13.492642 -613.629089
-70.400002 -13.492764 -613.859924
-69.879997 -13.505959 -614.240234
-69.349998 -13.507824 -614.491028
-68.820000 -13.511432 -614.761780
-68.279999 -13.518902 -614.961853
-67.750000 -13.525124 -615.262451
-67.209999 -13.531722 -615.452637
-66.660004 -13.536577 -615.622864
-66.120003 -13.537570 -615.863647
-65.589996 -13.540307 -616.124451
-65.050003 -13.549519 -616.344482
-64.500000 -13.550016 -616.464844
-63.950001 -13.554870 -616.635071
-63.400002 -13.557982 -616.785400
-62.849998 -13.562836 -616.955627
-62.299999 -13.558975 -617.026245
-61.730000 -13.560718 -617.046143
-61.150002 -13.557607 -616.895874
-60.549999 -13.554374 -616.514709
-59.910000 -13.536202 -615.733276
-57.970001 -13.358973 -607.397034
-57.259998 -13.324748 -605.743713
-56.540001 -13.288779 -604.070496
-55.869999 -13.266877 -602.787476
-55.230000 -13.248583 -601.775269
-54.590000 -13.225557 -600.823608
-53.990002 -13.211865 -600.322937
-53.400002 -13.205146 -599.901917
-52.820000 -13.192822 -599.531555
-52.270000 -13.195811 -599.450989
-51.709999 -13.190582 -599.391235
-51.160000 -13.190582 -599.391235
-50.619999 -13.193197 -599.421143
-50.070000 -13.196683 -599.460938
-49.540001 -13.203281 -599.651123
-49.009998 -13.207263 -599.811401
-48.470001 -13.208632 -599.941772
-47.930000 -13.207011 -600.152710
-47.400002 -13.213608 -600.342834
-46.860001 -13.219709 -600.412598
-46.310001 -13.216720 -600.493164
-45.770000 -13.221077 -600.542969
-45.209999 -13.214977 -600.473206
-44.669998 -13.216720 -600.493164
-44.099998 -13.210994 -600.312988
-43.549999 -13.217469 -600.272217
-42.990002 -13.216101 -600.141846
-42.439999 -13.206514 -600.032288
-41.880001 -13.205146 -599.901917
-41.320000 -13.208135 -599.821350
-40.770000 -13.201163 -599.741638
-40.220001 -13.207638 -599.700928
-39.669998 -13.204152 -599.661072
-39.119999 -13.205024 -599.671021
-38.570000 -13.205024 -599.671021
-38.020000 -13.200291 -599.731689
-37.490002 -13.205146 -599.901917
-36.950001 -13.212615 -600.101990
-36.400002 -13.217844 -600.161804
-35.860001 -13.215726 -600.252319
-35.310001 -13.218716 -600.171753
-34.750000 -13.208257 -600.052185
-34.180000 -13.205895 -599.680969
-33.619999 -13.204030 -599.430176
-33.049999 -13.189092 -599.029968
-32.480000 -13.183244 -598.618958
-31.910000 -13.179139 -598.227783
-31.340000 -13.169430 -597.887329
-30.770000 -13.161839 -597.456360
-30.209999 -13.153873 -597.135864
-29.650000 -13.143292 -596.785461
-29.080000 -13.133583 -596.445007
-28.520000 -13.126863 -596.023987
-27.959999 -13.128485 -595.813049
-27.400000 -13.118776 -595.472595
-26.850000 -13.112178 -595.282410
-26.290001 -13.105580 -595.092285
-25.750000 -13.111184 -595.041626
-25.200001 -13.102469 -594.941956
-24.660000 -13.106827 -594.991760
-24.110001 -13.107698 -595.001770
-23.570000 -13.107698 -595.001770
-23.020000 -13.101597 -594.932007
-22.480000 -13.108945 -594.901245
-21.930000 -13.101101 -594.811584
-21.379999 -13.102722 -594.600647
-20.820000 -13.093013 -594.260193
-20.270000 -13.084672 -594.050110
-19.700001 -13.074344 -593.358398
-19.150000 -13.064138 -592.897522
-18.590000 -13.058290 -592.486511
-18.049999 -13.056922 -592.356079
-17.500000 -13.049950 -592.276428
-16.959999 -13.049453 -592.156006
-16.410000 -13.044598 -591.985779
-15.860000 -13.038376 -591.685181
-15.310000 -13.028666 -591.344727
-14.760000 -13.027673 -591.103882
-14.220000 -13.025433 -590.963562
-13.680000 -13.016718 -590.863953
-13.140000 -13.017589 -590.873901
-12.600000 -13.025433 -590.963562
-12.060000 -13.019829 -591.014221
-11.520000 -13.027673 -591.103882
-10.980000 -13.024684 -591.184448
-10.440000 -13.037382 -591.444336
-9.910000 -13.034018 -591.635376
-9.370000 -13.036258 -591.775696
-8.830000 -13.044476 -591.754883
-8.280000 -13.036632 -591.665222
-7.740000 -13.034889 -591.645325
